ply
format ascii 1.0
element vertex 784
property double x
property double y
property double z
property double depth
property double albedo
end_header
0.875 0.1484375 0.983833740230000031 0.983833740230000031 1
0.8828125 0.1484375 0.992765686040000039 0.992765686040000039 1
0.890625 0.1484375 1.00559594727000001 1.00559594727000001 1
0.8984375 0.1484375 1.00641174315999993 1.00641174315999993 1
0.90625 0.1484375 1.00423773192999999 1.00423773192999999 1
0.9140625 0.1484375 1.01379510498000003 1.01379510498000003 1
0.921875 0.1484375 1.03110864258000001 1.03110864258000001 1
0.9296875 0.1484375 1.03115673827999998 1.03115673827999998 1
0.9375 0.1484375 1.01774737548999994 1.01774737548999994 1
0.9453125 0.1484375 1.01610510253999986 1.01610510253999986 1
0.953125 0.1484375 1.00972723389000008 1.00972723389000008 1
0.9609375 0.1484375 1.01964538574000008 1.01964538574000008 1
0.96875 0.1484375 1.02383435059000005 1.02383435059000005 1
0.9765625 0.1484375 0.99976800536999999 0.99976800536999999 1
0.984375 0.1484375 0.994594482419999926 0.994594482419999926 1
0.9921875 0.1484375 1.02623547362999989 1.02623547362999989 1
0 0.15625 1.00701324462999997 1.00701324462999997 1
0.0078125 0.15625 1.00367968750000003 1.00367968750000003 1
0.015625 0.15625 0.99594567871000006 0.99594567871000006 1
0.0234375 0.15625 1.02150720215000002 1.02150720215000002 1
0.03125 0.15625 1.01505456543000006 1.01505456543000006 1
0.0390625 0.15625 1.03696936035000009 1.03696936035000009 1
0.046875 0.15625 1.03470532227000001 1.03470532227000001 1
0.0546875 0.15625 1.03003771972999991 1.03003771972999991 1
0.0625 0.15625 1.02590380858999985 1.02590380858999985 1
0.0703125 0.15625 1.03404479979999997 1.03404479979999997 1
0.078125 0.15625 1.02965100097999995 1.02965100097999995 1
0.0859375 0.15625 1.02200561522999989 1.02200561522999989 1
0.09375 0.15625 1.01464215088000009 1.01464215088000009 1
0.1015625 0.15625 1.01435510253999994 1.01435510253999994 1
0.109375 0.15625 1.00555212402000005 1.00555212402000005 1
0.1171875 0.15625 0.99768664550999997 0.99768664550999997 1
0.125 0.15625 0.994943237300000005 0.994943237300000005 1
0.1328125 0.15625 1.00114392089999993 1.00114392089999993 1
0.140625 0.15625 1.00309069824000008 1.00309069824000008 1
0.1484375 0.15625 0.99521960449000002 0.99521960449000002 1
0.15625 0.15625 0.989084350589999994 0.989084350589999994 1
0.1640625 0.15625 0.985121826169999992 0.985121826169999992 1
0.171875 0.15625 0.98004321288999996 0.98004321288999996 1
0.1796875 0.15625 0.972527954100000036 0.972527954100000036 1
0.1875 0.15625 0.969056518549999968 0.969056518549999968 1
0.1953125 0.15625 0.971870239259999935 0.971870239259999935 1
0.203125 0.15625 0.973642089840000002 0.973642089840000002 1
0.2109375 0.15625 0.96958654784999998 0.96958654784999998 1
0.21875 0.15625 0.970554382319999909 0.970554382319999909 1
0.2265625 0.15625 0.980575622560000082 0.980575622560000082 1
0.234375 0.15625 0.985682006839999958 0.985682006839999958 1
0.2421875 0.15625 0.983422119139999995 0.983422119139999995 1
0.25 0.15625 0.985985839839999989 0.985985839839999989 1
0.2578125 0.15625 0.998858093260000079 0.998858093260000079 1
0.265625 0.15625 1.00287170409999993 1.00287170409999993 1
0.2734375 0.15625 0.999027832030000007 0.999027832030000007 1
0.28125 0.15625 1.00327014160000005 1.00327014160000005 1
0.2890625 0.15625 1.01522149657999994 1.01522149657999994 1
0.296875 0.15625 1.02579296875000003 1.02579296875000003 1
0.3046875 0.15625 1.02045056151999991 1.02045056151999991 1
0.3125 0.15625 1.01961022949000002 1.01961022949000002 1
0.3203125 0.15625 1.01734271240000007 1.01734271240000007 1
0.328125 0.15625 1.01347918700999995 1.01347918700999995 1
0.3359375 0.15625 1.00617077637000008 1.00617077637000008 1
0.34375 0.15625 1.00705285645000009 1.00705285645000009 1
0.3515625 0.15625 1.01153405762000004 1.01153405762000004 1
0.359375 0.15625 1.0141809692399999 1.0141809692399999 1
0.3671875 0.15625 1.01139312743999987 1.01139312743999987 1
0.375 0.15625 1.01950604247999999 1.01950604247999999 1
0.3828125 0.15625 1.03575231934 1.03575231934 1
0.390625 0.15625 1.04974475097999997 1.04974475097999997 1
0.3984375 0.15625 1.0448192138700001 1.0448192138700001 1
0.40625 0.15625 1.04113562012000016 1.04113562012000016 1
0.4140625 0.15625 1.03669738770000008 1.03669738770000008 1
0.421875 0.15625 1.02680908202999999 1.02680908202999999 1
0.4296875 0.15625 1.01751635741999991 1.01751635741999991 1
0.4375 0.15625 1.01435375977000009 1.01435375977000009 1
0.4453125 0.15625 1.01635479736000001 1.01635479736000001 1
0.453125 0.15625 1.01607672118999992 1.01607672118999992 1
0.4609375 0.15625 1.01088330077999999 1.01088330077999999 1
0.46875 0.15625 1.01467358398000007 1.01467358398000007 1
0.4765625 0.15625 1.02272601318 1.02272601318 1
0.484375 0.15625 1.03015270996000008 1.03015270996000008 1
0.4921875 0.15625 1.02430065917999991 1.02430065917999991 1
0.5 0.15625 1.02282910155999995 1.02282910155999995 1
0.5078125 0.15625 1.0212125244100001 1.0212125244100001 1
0.515625 0.15625 1.0174754638700001 1.0174754638700001 1
0.5234375 0.15625 1.01168090820000001 1.01168090820000001 1
0.53125 0.15625 1.01632501221000004 1.01632501221000004 1
0.5390625 0.15625 1.02686938476999989 1.02686938476999989 1
0.546875 0.15625 1.03392309570000007 1.03392309570000007 1
0.5546875 0.15625 1.0282823486299999 1.0282823486299999 1
0.5625 0.15625 1.02900646972999987 1.02900646972999987 1
0.5703125 0.15625 1.02948278808999993 1.02948278808999993 1
0.578125 0.15625 1.02999804687999985 1.02999804687999985 1
0.5859375 0.15625 1.02369177246000009 1.02369177246000009 1
0.59375 0.15625 1.02455871582000002 1.02455871582000002 1
0.6015625 0.15625 1.02586791992000004 1.02586791992000004 1
0.609375 0.15625 1.02608898926000003 1.02608898926000003 1
0.6171875 0.15625 1.02088464354999986 1.02088464354999986 1
0.625 0.15625 1.02389862061000003 1.02389862061000003 1
0.6328125 0.15625 1.03337023926000016 1.03337023926000016 1
0.640625 0.15625 1.03966345215000011 1.03966345215000011 1
0.6484375 0.15625 1.03485290526999996 1.03485290526999996 1
0.65625 0.15625 1.03745178223000001 1.03745178223000001 1
0.6640625 0.15625 1.04102124023000009 1.04102124023000009 1
0.671875 0.15625 1.04370678711000009 1.04370678711000009 1
0.6796875 0.15625 1.03665087891000018 1.03665087891000018 1
0.6875 0.15625 1.03517675780999996 1.03517675780999996 1
0.6953125 0.15625 1.03328808593999999 1.03328808593999999 1
0.703125 0.15625 1.03367858887000019 1.03367858887000019 1
0.7109375 0.15625 1.02686791992000015 1.02686791992000015 1
0.71875 0.15625 1.0267666015600001 1.0267666015600001 1
0.7265625 0.15625 1.02602502440999999 1.02602502440999999 1
0.734375 0.15625 1.02147265625000006 1.02147265625000006 1
0.7421875 0.15625 1.01176446532999997 1.01176446532999997 1
0.75 0.15625 1.01184948729999991 1.01184948729999991 1
0.7578125 0.15625 1.01563916015999989 1.01563916015999989 1
0.765625 0.15625 1.01957708740000008 1.01957708740000008 1
0.7734375 0.15625 1.00977545165999993 1.00977545165999993 1
0.78125 0.15625 1.00550927734000006 1.00550927734000006 1
0.7890625 0.15625 0.994767578120000051 0.994767578120000051 1
0.796875 0.15625 0.989205383299999963 0.989205383299999963 1
0.8046875 0.15625 0.978915649409999977 0.978915649409999977 1
0.8125 0.15625 0.973274841310000083 0.973274841310000083 1
0.8203125 0.15625 0.968959167479999994 0.968959167479999994 1
0.828125 0.15625 0.967578124999999956 0.967578124999999956 1
0.8359375 0.15625 0.962372192380000047 0.962372192380000047 1
0.84375 0.15625 0.965882263180000034 0.965882263180000034 1
0.8515625 0.15625 0.973016357419999922 0.973016357419999922 1
0.859375 0.15625 0.983555664060000057 0.983555664060000057 1
0.8671875 0.15625 0.981298034669999986 0.981298034669999986 1
0.875 0.15625 0.988893005370000022 0.988893005370000022 1
0.8828125 0.15625 0.998242858889999973 0.998242858889999973 1
0.890625 0.15625 1.00789624023000002 1.00789624023000002 1
0.8984375 0.15625 1.00432958983999998 1.00432958983999998 1
0.90625 0.15625 1.00882714843999999 1.00882714843999999 1
0.9140625 0.15625 1.01713580321999997 1.01713580321999997 1
0.921875 0.15625 1.02634777832000013 1.02634777832000013 1
0.9296875 0.15625 1.02108752440999995 1.02108752440999995 1
0.9375 0.15625 1.01756744384999998 1.01756744384999998 1
0.9453125 0.15625 1.01546960449000001 1.01546960449000001 1
0.953125 0.15625 1.00840234375000004 1.00840234375000004 1
0.9609375 0.15625 1.00633850098000011 1.00633850098000011 1
0.96875 0.15625 1.00473046875000005 1.00473046875000005 1
0.9765625 0.15625 1.01350598145000004 1.01350598145000004 1
0.984375 0.15625 0.999938415530000069 0.999938415530000069 1
0.9921875 0.15625 1.01676635741999988 1.01676635741999988 1
0 0.1640625 0.984120483400000023 0.984120483400000023 1
0.0078125 0.1640625 0.978834899899999944 0.978834899899999944 1
0.015625 0.1640625 0.984953308109999925 0.984953308109999925 1
0.0234375 0.1640625 1.00195343018000016 1.00195343018000016 1
0.03125 0.1640625 1.00867761229999986 1.00867761229999986 1
0.0390625 0.1640625 1.03192333983999984 1.03192333983999984 1
0.046875 0.1640625 1.02417163085999996 1.02417163085999996 1
0.0546875 0.1640625 1.0181362304699999 1.0181362304699999 1
0.0625 0.1640625 1.02099401854999994 1.02099401854999994 1
0.0703125 0.1640625 1.02416406249999992 1.02416406249999992 1
0.078125 0.1640625 1.02733349609000002 1.02733349609000002 1
0.0859375 0.1640625 1.01981427001999991 1.01981427001999991 1
0.09375 0.1640625 1.01509240723000005 1.01509240723000005 1
0.1015625 0.1640625 1.0113543090799999 1.0113543090799999 1
0.109375 0.1640625 1.00600585937999987 1.00600585937999987 1
0.1171875 0.1640625 0.997334594730000079 0.997334594730000079 1
0.125 0.1640625 0.997556030269999949 0.997556030269999949 1
0.1328125 0.1640625 0.999970703120000026 0.999970703120000026 1
0.140625 0.1640625 1.00677722167999995 1.00677722167999995 1
0.1484375 0.1640625 1.00025299071999996 1.00025299071999996 1
0.15625 0.1640625 0.99602587890999994 0.99602587890999994 1
0.1640625 0.1640625 0.988717407230000012 0.988717407230000012 1
0.171875 0.1640625 0.985675292970000005 0.985675292970000005 1
0.1796875 0.1640625 0.97799401855000001 0.97799401855000001 1
0.1875 0.1640625 0.976722167969999999 0.976722167969999999 1
0.1953125 0.1640625 0.974685485839999921 0.974685485839999921 1
0.203125 0.1640625 0.978242858889999956 0.978242858889999956 1
0.2109375 0.1640625 0.973927490230000026 0.973927490230000026 1
0.21875 0.1640625 0.976151977539999938 0.976151977539999938 1
0.2265625 0.1640625 0.979698608400000004 0.979698608400000004 1
0.234375 0.1640625 0.98454168701 0.98454168701 1
0.2421875 0.1640625 0.981184997560000105 0.981184997560000105 1
0.25 0.1640625 0.986002746579999978 0.986002746579999978 1
0.2578125 0.1640625 0.993876770019999967 0.993876770019999967 1
0.265625 0.1640625 1.00258282470999993 1.00258282470999993 1
0.2734375 0.1640625 0.999695678710000091 0.999695678710000091 1
0.28125 0.1640625 1.00653649901999986 1.00653649901999986 1
0.2890625 0.1640625 1.01567785644999997 1.01567785644999997 1
0.296875 0.1640625 1.03157202148000016 1.03157202148000016 1
0.3046875 0.1640625 1.02724877930000003 1.02724877930000003 1
0.3125 0.1640625 1.02792175292999999 1.02792175292999999 1
0.3203125 0.1640625 1.02335498046999995 1.02335498046999995 1
0.328125 0.1640625 1.02066394042999997 1.02066394042999997 1
0.3359375 0.1640625 1.01295776367000001 1.01295776367000001 1
0.34375 0.1640625 1.01491406249999994 1.01491406249999994 1
0.3515625 0.1640625 1.01587811279000007 1.01587811279000007 1
0.359375 0.1640625 1.01885211182000002 1.01885211182000002 1
0.3671875 0.1640625 1.01579333496000013 1.01579333496000013 1
0.375 0.1640625 1.02509191895000007 1.02509191895000007 1
0.3828125 0.1640625 1.03715795898000018 1.03715795898000018 1
0.390625 0.1640625 1.05239538573999991 1.05239538573999991 1
0.3984375 0.1640625 1.0470480956999999 1.0470480956999999 1
0.40625 0.1640625 1.04529309081999999 1.04529309081999999 1
0.4140625 0.1640625 1.03839453125000003 1.03839453125000003 1
0.421875 0.1640625 1.03145104980000002 1.03145104980000002 1
0.4296875 0.1640625 1.02143988037 1.02143988037 1
0.4375 0.1640625 1.02068524170000008 1.02068524170000008 1
0.4453125 0.1640625 1.01956408691 1.01956408691 1
0.453125 0.1640625 1.02209069823999998 1.02209069823999998 1
0.4609375 0.1640625 1.01703271484000002 1.01703271484000002 1
0.46875 0.1640625 1.0222500000000001 1.0222500000000001 1
0.4765625 0.1640625 1.02709594726999986 1.02709594726999986 1
0.484375 0.1640625 1.03603112792999985 1.03603112792999985 1
0.4921875 0.1640625 1.03050915527000009 1.03050915527000009 1
0.5 0.1640625 1.02995227051000016 1.02995227051000016 1
0.5078125 0.1640625 1.02548864746000001 1.02548864746000001 1
0.515625 0.1640625 1.02257501220999991 1.02257501220999991 1
0.5234375 0.1640625 1.01595434569999998 1.01595434569999998 1
0.53125 0.1640625 1.02182745361000005 1.02182745361000005 1
0.5390625 0.1640625 1.02898864746000007 1.02898864746000007 1
0.546875 0.1640625 1.03754162597999988 1.03754162597999988 1
0.5546875 0.1640625 1.03307385254000006 1.03307385254000006 1
0.5625 0.1640625 1.03481542969000007 1.03481542969000007 1
0.5703125 0.1640625 1.03330212401999999 1.03330212401999999 1
0.578125 0.1640625 1.03863757323999994 1.03863757323999994 1
0.5859375 0.1640625 1.03359631347999992 1.03359631347999992 1
0.59375 0.1640625 1.03476354980000007 1.03476354980000007 1
0.6015625 0.1640625 1.03284704590000009 1.03284704590000009 1
0.609375 0.1640625 1.03064086913999997 1.03064086913999997 1
0.6171875 0.1640625 1.02370562744000004 1.02370562744000004 1
0.625 0.1640625 1.02869055176000002 1.02869055176000002 1
0.6328125 0.1640625 1.03444860839999997 1.03444860839999997 1
0.640625 0.1640625 1.04362744140999997 1.04362744140999997 1
0.6484375 0.1640625 1.03919519042999986 1.03919519042999986 1
0.65625 0.1640625 1.04401794433999995 1.04401794433999995 1
0.6640625 0.1640625 1.04619750976999981 1.04619750976999981 1
0.671875 0.1640625 1.05243701172000015 1.05243701172000015 1
0.6796875 0.1640625 1.0460258789100001 1.0460258789100001 1
0.6875 0.1640625 1.04556835938000003 1.04556835938000003 1
0.6953125 0.1640625 1.04059399413999998 1.04059399413999998 1
0.703125 0.1640625 1.04162036132999991 1.04162036132999991 1
0.7109375 0.1640625 1.03431506348000002 1.03431506348000002 1
0.71875 0.1640625 1.03460998534999993 1.03460998534999993 1
0.7265625 0.1640625 1.03140966797 1.03140966797 1
0.734375 0.1640625 1.02451257324 1.02451257324 1
0.7421875 0.1640625 1.01433587646000012 1.01433587646000012 1
0.75 0.1640625 1.01682208252000006 1.01682208252000006 1
0.7578125 0.1640625 1.01959002686 1.01959002686 1
0.765625 0.1640625 1.03014794922000008 1.03014794922000008 1
0.7734375 0.1640625 1.02391748046999997 1.02391748046999997 1
0.78125 0.1640625 1.01924566650000004 1.01924566650000004 1
0.7890625 0.1640625 1.00758526610999999 1.00758526610999999 1
0.796875 0.1640625 0.999151611330000078 0.999151611330000078 1
0.8046875 0.1640625 0.988949523930000018 0.988949523930000018 1
0.8125 0.1640625 0.983997253419999995 0.983997253419999995 1
0.8203125 0.1640625 0.976518432620000043 0.976518432620000043 1
0.828125 0.1640625 0.974680664059999979 0.974680664059999979 1
0.8359375 0.1640625 0.970447326659999998 0.970447326659999998 1
0.84375 0.1640625 0.975094360349999967 0.975094360349999967 1
0.8515625 0.1640625 0.978756042480000032 0.978756042480000032 1
0.859375 0.1640625 0.99132019042999997 0.99132019042999997 1
0.8671875 0.1640625 0.990253845210000039 0.990253845210000039 1
0.875 0.1640625 0.998508605959999906 0.998508605959999906 1
0.8828125 0.1640625 1.00460681151999998 1.00460681151999998 1
0.890625 0.1640625 1.01451147461000013 1.01451147461000013 1
0.8984375 0.1640625 1.01180499268000013 1.01180499268000013 1
0.90625 0.1640625 1.01669635009999992 1.01669635009999992 1
0.9140625 0.1640625 1.02076794433999996 1.02076794433999996 1
0.921875 0.1640625 1.03064916992 1.03064916992 1
0.9296875 0.1640625 1.02490759276999999 1.02490759276999999 1
0.9375 0.1640625 1.02298602295000007 1.02298602295000007 1
0.9453125 0.1640625 1.01733941650000004 1.01733941650000004 1
0.953125 0.1640625 1.0120141601599999 1.0120141601599999 1
0.9609375 0.1640625 1.01721936034999993 1.01721936034999993 1
0.96875 0.1640625 1.01743841553000003 1.01743841553000003 1
0.9765625 0.1640625 0.998530273440000005 0.998530273440000005 1
0.984375 0.1640625 0.999979248050000047 0.999979248050000047 1
0.9921875 0.1640625 1.02084838866999994 1.02084838866999994 1
0 0.171875 1.00902526854999985 1.00902526854999985 1
0.0078125 0.171875 0.986529846189999948 0.986529846189999948 1
0.015625 0.171875 0.970086486819999982 0.970086486819999982 1
0.0234375 0.171875 0.993534606929999953 0.993534606929999953 1
0.03125 0.171875 1.01545654296999999 1.01545654296999999 1
0.0390625 0.171875 1.03290356444999998 1.03290356444999998 1
0.046875 0.171875 1.02091955565999992 1.02091955565999992 1
0.0546875 0.171875 1.01233557128999996 1.01233557128999996 1
0.0625 0.171875 1.00426611327999993 1.00426611327999993 1
0.0703125 0.171875 1.01159777832000009 1.01159777832000009 1
0.078125 0.171875 1.00961212158000002 1.00961212158000002 1
0.0859375 0.171875 1.00687341308999989 1.00687341308999989 1
0.09375 0.171875 1.0051732177699999 1.0051732177699999 1
0.1015625 0.171875 1.00793298339999993 1.00793298339999993 1
0.109375 0.171875 0.991126953120000098 0.991126953120000098 1
0.1171875 0.171875 0.987338806150000026 0.987338806150000026 1
0.125 0.171875 0.991098510740000105 0.991098510740000105 1
0.1328125 0.171875 1.00308581542999997 1.00308581542999997 1
0.140625 0.171875 1.00081854248000002 1.00081854248000002 1
0.1484375 0.171875 0.997536743159999961 0.997536743159999961 1
0.15625 0.171875 0.994964294430000007 0.994964294430000007 1
0.1640625 0.171875 0.99861175537000002 0.99861175537000002 1
0.171875 0.171875 0.982092651370000014 0.982092651370000014 1
0.1796875 0.171875 0.977338012699999981 0.977338012699999981 1
0.1875 0.171875 0.97654541015999996 0.97654541015999996 1
0.1953125 0.171875 0.984930419919999967 0.984930419919999967 1
0.203125 0.171875 0.97483178711000007 0.97483178711000007 1
0.2109375 0.171875 0.971842163089999933 0.971842163089999933 1
0.21875 0.171875 0.972148559570000015 0.972148559570000015 1
0.2265625 0.171875 0.981572143549999998 0.981572143549999998 1
0.234375 0.171875 0.971882385249999925 0.971882385249999925 1
0.2421875 0.171875 0.970523254389999979 0.970523254389999979 1
0.25 0.171875 0.976181213380000079 0.976181213380000079 1
0.2578125 0.171875 0.991050537110000018 0.991050537110000018 1
0.265625 0.171875 0.99136651611000004 0.99136651611000004 1
0.2734375 0.171875 0.991788085940000008 0.991788085940000008 1
0.28125 0.171875 1.0026735229499999 1.0026735229499999 1
0.2890625 0.171875 1.02266693115000007 1.02266693115000007 1
0.296875 0.171875 1.03073925781000009 1.03073925781000009 1
0.3046875 0.171875 1.02815771483999985 1.02815771483999985 1
0.3125 0.171875 1.02895947265999999 1.02895947265999999 1
0.3203125 0.171875 1.03381335448999989 1.03381335448999989 1
0.328125 0.171875 1.01734167479999993 1.01734167479999993 1
0.3359375 0.171875 1.01329510498000008 1.01329510498000008 1
0.34375 0.171875 1.01534936523000008 1.01534936523000008 1
0.3515625 0.171875 1.02419799805 1.02419799805 1
0.359375 0.171875 1.01364025878999997 1.01364025878999997 1
0.3671875 0.171875 1.01368212890999998 1.01368212890999998 1
0.375 0.171875 1.02316070557000005 1.02316070557000005 1
0.3828125 0.171875 1.04148413086000002 1.04148413086000002 1
0.390625 0.171875 1.04558569336000007 1.04558569336000007 1
0.3984375 0.171875 1.04235510253999997 1.04235510253999997 1
0.40625 0.171875 1.0403542480500001 1.0403542480500001 1
0.4140625 0.171875 1.04124682617000008 1.04124682617000008 1
0.421875 0.171875 1.02259832763999992 1.02259832763999992 1
0.4296875 0.171875 1.0178458252 1.0178458252 1
0.4375 0.171875 1.01934698486000008 1.01934698486000008 1
0.4453125 0.171875 1.0275556640600001 1.0275556640600001 1
0.453125 0.171875 1.01857055663999985 1.01857055663999985 1
0.4609375 0.171875 1.01672241211000003 1.01672241211000003 1
0.46875 0.171875 1.02271881104000006 1.02271881104000006 1
0.4765625 0.171875 1.03635510253999996 1.03635510253999996 1
0.484375 0.171875 1.03367602538999992 1.03367602538999992 1
0.4921875 0.171875 1.03010974120999999 1.03010974120999999 1
0.5 0.171875 1.02844482422000016 1.02844482422000016 1
0.5078125 0.171875 1.03223559570000001 1.03223559570000001 1
0.515625 0.171875 1.01584747314000001 1.01584747314000001 1
0.5234375 0.171875 1.01259838867000007 1.01259838867000007 1
0.53125 0.171875 1.01865698242000002 1.01865698242000002 1
0.5390625 0.171875 1.03284741210999997 1.03284741210999997 1
0.546875 0.171875 1.03009582520000009 1.03009582520000009 1
0.5546875 0.171875 1.02893896484000003 1.02893896484000003 1
0.5625 0.171875 1.03216894531000003 1.03216894531000003 1
0.5703125 0.171875 1.04250354004000001 1.04250354004000001 1
0.578125 0.171875 1.04032373047000015 1.04032373047000015 1
0.5859375 0.171875 1.03783715819999989 1.03783715819999989 1
0.59375 0.171875 1.03744226074000001 1.03744226074000001 1
0.6015625 0.171875 1.04222595214999991 1.04222595214999991 1
0.609375 0.171875 1.0230856933600001 1.0230856933600001 1
0.6171875 0.171875 1.02000708008000007 1.02000708008000007 1
0.625 0.171875 1.02568945312000004 1.02568945312000004 1
0.6328125 0.171875 1.03906884766000007 1.03906884766000007 1
0.640625 0.171875 1.03825878906000013 1.03825878906000013 1
0.6484375 0.171875 1.03710729979999994 1.03710729979999994 1
0.65625 0.171875 1.04416394042999983 1.04416394042999983 1
0.6640625 0.171875 1.05703918457000001 1.05703918457000001 1
0.671875 0.171875 1.0534298095700001 1.0534298095700001 1
0.6796875 0.171875 1.04987915039000002 1.04987915039000002 1
0.6875 0.171875 1.04789147948999983 1.04789147948999983 1
0.6953125 0.171875 1.05219128417999985 1.05219128417999985 1
0.703125 0.171875 1.03997143555000005 1.03997143555000005 1
0.7109375 0.171875 1.03495764159999992 1.03495764159999992 1
0.71875 0.171875 1.03285607909999988 1.03285607909999988 1
0.7265625 0.171875 1.03574011230000007 1.03574011230000007 1
0.734375 0.171875 1.01206097411999996 1.01206097411999996 1
0.7421875 0.171875 1.00702288818000008 1.00702288818000008 1
0.75 0.171875 1.01427362061000004 1.01427362061000004 1
0.7578125 0.171875 1.03074365233999998 1.03074365233999998 1
0.765625 0.171875 1.03523229979999987 1.03523229979999987 1
0.7734375 0.171875 1.03101403808999992 1.03101403808999992 1
0.78125 0.171875 1.02647399902000003 1.02647399902000003 1
0.7890625 0.171875 1.02614770507999986 1.02614770507999986 1
0.796875 0.171875 0.999066101069999934 0.999066101069999934 1
0.8046875 0.171875 0.992180541990000053 0.992180541990000053 1
0.8125 0.171875 0.987661376950000003 0.987661376950000003 1
0.8203125 0.171875 0.991668457030000061 0.991668457030000061 1
0.828125 0.171875 0.973806762699999995 0.973806762699999995 1
0.8359375 0.171875 0.971692382810000033 0.971692382810000033 1
0.84375 0.171875 0.977464721679999982 0.977464721679999982 1
0.8515625 0.171875 0.99456683350000008 0.99456683350000008 1
0.859375 0.171875 0.995468505860000019 0.995468505860000019 1
0.8671875 0.171875 0.994264343260000016 0.994264343260000016 1
0.875 0.171875 1.00151770019999997 1.00151770019999997 1
0.8828125 0.171875 1.01751110839999992 1.01751110839999992 1
0.890625 0.171875 1.01390539550999992 1.01390539550999992 1
0.8984375 0.171875 1.01298181152 1.01298181152 1
0.90625 0.171875 1.01669213866999986 1.01669213866999986 1
0.9140625 0.171875 1.02899841309000006 1.02899841309000006 1
0.921875 0.171875 1.02650097655999994 1.02650097655999994 1
0.9296875 0.171875 1.02214788817999991 1.02214788817999991 1
0.9375 0.171875 1.01887255859000003 1.01887255859000003 1
0.9453125 0.171875 1.02079174804999995 1.02079174804999995 1
0.953125 0.171875 1.00202001952999997 1.00202001952999997 1
0.9609375 0.171875 1.01523699951000013 1.01523699951000013 1
0.96875 0.171875 1.02218939209000004 1.02218939209000004 1
0.9765625 0.171875 1.02170349121000004 1.02170349121000004 1
0.984375 0.171875 0.999390747069999974 0.999390747069999974 1
0.9921875 0.171875 0.991380310060000047 0.991380310060000047 1
0 0.1796875 0.98491131592000003 0.98491131592000003 1
0.0078125 0.1796875 0.963419494629999984 0.963419494629999984 1
0.015625 0.1796875 0.934328247069999951 0.934328247069999951 1
0.0234375 0.1796875 0.935935180660000032 0.935935180660000032 1
0.03125 0.1796875 0.968405578609999984 0.968405578609999984 1
0.0390625 0.1796875 0.991019592290000029 0.991019592290000029 1
0.046875 0.1796875 0.997474914550000036 0.997474914550000036 1
0.0546875 0.1796875 0.99571472167999997 0.99571472167999997 1
0.0625 0.1796875 0.980443542479999985 0.980443542479999985 1
0.0703125 0.1796875 0.985721496579999967 0.985721496579999967 1
0.078125 0.1796875 0.996516052250000062 0.996516052250000062 1
0.0859375 0.1796875 0.999708557130000064 0.999708557130000064 1
0.09375 0.1796875 0.987754455569999967 0.987754455569999967 1
0.1015625 0.1796875 0.988016357419999935 0.988016357419999935 1
0.109375 0.1796875 0.986780212400000023 0.986780212400000023 1
0.1171875 0.1796875 0.986257812499999997 0.986257812499999997 1
0.125 0.1796875 0.97995190430000001 0.97995190430000001 1
0.1328125 0.1796875 0.987194641109999993 0.987194641109999993 1
0.140625 0.1796875 0.999511962889999994 0.999511962889999994 1
0.1484375 0.1796875 0.998481506349999992 0.998481506349999992 1
0.15625 0.1796875 0.986297912599999993 0.986297912599999993 1
0.1640625 0.1796875 0.985127319339999974 0.985127319339999974 1
0.171875 0.1796875 0.985296447749999915 0.985296447749999915 1
0.1796875 0.1796875 0.981996398930000014 0.981996398930000014 1
0.1875 0.1796875 0.972688842770000006 0.972688842770000006 1
0.1953125 0.1796875 0.973786254880000035 0.973786254880000035 1
0.203125 0.1796875 0.980829284669999968 0.980829284669999968 1
0.2109375 0.1796875 0.978275634770000013 0.978275634770000013 1
0.21875 0.1796875 0.969091979980000073 0.969091979980000073 1
0.2265625 0.1796875 0.967408813480000074 0.967408813480000074 1
0.234375 0.1796875 0.969949462889999947 0.969949462889999947 1
0.2421875 0.1796875 0.970401855470000019 0.970401855470000019 1
0.25 0.1796875 0.966683166499999968 0.966683166499999968 1
0.2578125 0.1796875 0.973507629390000018 0.973507629390000018 1
0.265625 0.1796875 0.98741479491999995 0.98741479491999995 1
0.2734375 0.1796875 0.989897460939999974 0.989897460939999974 1
0.28125 0.1796875 0.992540771479999973 0.992540771479999973 1
0.2890625 0.1796875 1.00727099609000015 1.00727099609000015 1
0.296875 0.1796875 1.02810607910000007 1.02810607910000007 1
0.3046875 0.1796875 1.02799645996 1.02799645996 1
0.3125 0.1796875 1.01985266113000006 1.01985266113000006 1
0.3203125 0.1796875 1.0223111572300001 1.0223111572300001 1
0.328125 0.1796875 1.02295843506000006 1.02295843506000006 1
0.3359375 0.1796875 1.01925036621000009 1.01925036621000009 1
0.34375 0.1796875 1.01048242187999993 1.01048242187999993 1
0.3515625 0.1796875 1.01307641602000009 1.01307641602000009 1
0.359375 0.1796875 1.01682904053000001 1.01682904053000001 1
0.3671875 0.1796875 1.01589691162000006 1.01589691162000006 1
0.375 0.1796875 1.01489935303000012 1.01489935303000012 1
0.3828125 0.1796875 1.02573779297000001 1.02573779297000001 1
0.390625 0.1796875 1.04071435547000002 1.04071435547000002 1
0.3984375 0.1796875 1.04020593262000016 1.04020593262000016 1
0.40625 0.1796875 1.02978039551 1.02978039551 1
0.4140625 0.1796875 1.0294757080100001 1.0294757080100001 1
0.421875 0.1796875 1.02928161621000003 1.02928161621000003 1
0.4296875 0.1796875 1.02493994141 1.02493994141 1
0.4375 0.1796875 1.01749133300999994 1.01749133300999994 1
0.4453125 0.1796875 1.02012451171999996 1.02012451171999996 1
0.453125 0.1796875 1.02600317382999995 1.02600317382999995 1
0.4609375 0.1796875 1.02288934326000014 1.02288934326000014 1
0.46875 0.1796875 1.01736437988000006 1.01736437988000006 1
0.4765625 0.1796875 1.02376196288999988 1.02376196288999988 1
0.484375 0.1796875 1.03122839354999996 1.03122839354999996 1
0.4921875 0.1796875 1.02943688964999991 1.02943688964999991 1
0.5 0.1796875 1.01567767333999992 1.01567767333999992 1
0.5078125 0.1796875 1.01638250731999991 1.01638250731999991 1
0.515625 0.1796875 1.01528710938 1.01528710938 1
0.5234375 0.1796875 1.01427709961000012 1.01427709961000012 1
0.53125 0.1796875 1.00919067383000005 1.00919067383000005 1
0.5390625 0.1796875 1.01810852051 1.01810852051 1
0.546875 0.1796875 1.02802185059000006 1.02802185059000006 1
0.5546875 0.1796875 1.02825817871000003 1.02825817871000003 1
0.5625 0.1796875 1.01977075194999989 1.01977075194999989 1
0.5703125 0.1796875 1.02723327637000006 1.02723327637000006 1
0.578125 0.1796875 1.03850415038999988 1.03850415038999988 1
0.5859375 0.1796875 1.03790197754000002 1.03790197754000002 1
0.59375 0.1796875 1.02439868163999992 1.02439868163999992 1
0.6015625 0.1796875 1.02374249268000006 1.02374249268000006 1
0.609375 0.1796875 1.01638122558999999 1.01638122558999999 1
0.6171875 0.1796875 1.01531280518 1.01531280518 1
0.625 0.1796875 1.00856176758000005 1.00856176758000005 1
0.6328125 0.1796875 1.01813696288999989 1.01813696288999989 1
0.640625 0.1796875 1.03056164550999996 1.03056164550999996 1
0.6484375 0.1796875 1.03278869628999992 1.03278869628999992 1
0.65625 0.1796875 1.03268566895000014 1.03268566895000014 1
0.6640625 0.1796875 1.04411645507999995 1.04411645507999995 1
0.671875 0.1796875 1.05814099120999994 1.05814099120999994 1
0.6796875 0.1796875 1.05514746094 1.05514746094 1
0.6875 0.1796875 1.04257397461000001 1.04257397461000001 1
0.6953125 0.1796875 1.04188964843999998 1.04188964843999998 1
0.703125 0.1796875 1.04159680176000013 1.04159680176000013 1
0.7109375 0.1796875 1.0382695312500001 1.0382695312500001 1
0.71875 0.1796875 1.02394140625000007 1.02394140625000007 1
0.7265625 0.1796875 1.02228820800999998 1.02228820800999998 1
0.734375 0.1796875 1.01353448486000008 1.01353448486000008 1
0.7421875 0.1796875 1.01055590819999996 1.01055590819999996 1
0.75 0.1796875 1.00580993651999995 1.00580993651999995 1
0.7578125 0.1796875 1.01969519043000001 1.01969519043000001 1
0.765625 0.1796875 1.03713854979999986 1.03713854979999986 1
0.7734375 0.1796875 1.03506188965000012 1.03506188965000012 1
0.78125 0.1796875 1.01852825928000001 1.01852825928000001 1
0.7890625 0.1796875 1.01598736572000004 1.01598736572000004 1
0.796875 0.1796875 1.0054599609399999 1.0054599609399999 1
0.8046875 0.1796875 0.999190002439999891 0.999190002439999891 1
0.8125 0.1796875 0.984917297359999999 0.984917297359999999 1
0.8203125 0.1796875 0.983451843260000014 0.983451843260000014 1
0.828125 0.1796875 0.98447021484000008 0.98447021484000008 1
0.8359375 0.1796875 0.981244628909999972 0.981244628909999972 1
0.84375 0.1796875 0.979561584469999969 0.979561584469999969 1
0.8515625 0.1796875 0.987342041020000005 0.987342041020000005 1
0.859375 0.1796875 1.00365081786999988 1.00365081786999988 1
0.8671875 0.1796875 1.00188623047000003 1.00188623047000003 1
0.875 0.1796875 0.999352539059999989 0.999352539059999989 1
0.8828125 0.1796875 1.00711132812000015 1.00711132812000015 1
0.890625 0.1796875 1.0154554443399999 1.0154554443399999 1
0.8984375 0.1796875 1.01390759276999987 1.01390759276999987 1
0.90625 0.1796875 1.00426562499999994 1.00426562499999994 1
0.9140625 0.1796875 1.00970062256000004 1.00970062256000004 1
0.921875 0.1796875 1.01743566894999993 1.01743566894999993 1
0.9296875 0.1796875 1.01754858398000003 1.01754858398000003 1
0.9375 0.1796875 1.00373382567999991 1.00373382567999991 1
0.9453125 0.1796875 1.00380035400000001 1.00380035400000001 1
0.953125 0.1796875 1.0020053710900001 1.0020053710900001 1
0.9609375 0.1796875 1.01306097412000007 1.01306097412000007 1
0.96875 0.1796875 1.01535156250000003 1.01535156250000003 1
0.9765625 0.1796875 0.99038397216999996 0.99038397216999996 1
0.984375 0.1796875 0.977426452639999943 0.977426452639999943 1
0.9921875 0.1796875 1.00637890624999993 1.00637890624999993 1
0 0.1875 0.930659057620000008 0.930659057620000008 1
0.0078125 0.1875 0.932656738280000064 0.932656738280000064 1
0.015625 0.1875 0.924991455080000025 0.924991455080000025 1
0.0234375 0.1875 0.952611328120000045 0.952611328120000045 1
0.03125 0.1875 0.94606884765999999 0.94606884765999999 1
0.0390625 0.1875 0.964372375489999989 0.964372375489999989 1
0.046875 0.1875 0.967537658689999969 0.967537658689999969 1
0.0546875 0.1875 0.968265625000000019 0.968265625000000019 1
0.0625 0.1875 0.967072875980000024 0.967072875980000024 1
0.0703125 0.1875 0.977038635250000009 0.977038635250000009 1
0.078125 0.1875 0.986008483889999954 0.986008483889999954 1
0.0859375 0.1875 0.98225177001999997 0.98225177001999997 1
0.09375 0.1875 0.981499389650000054 0.981499389650000054 1
0.1015625 0.1875 0.9851219482400001 0.9851219482400001 1
0.109375 0.1875 0.985985351560000001 0.985985351560000001 1
0.1171875 0.1875 0.979611633300000006 0.979611633300000006 1
0.125 0.1875 0.982510498050000014 0.982510498050000014 1
0.1328125 0.1875 0.990469360349999994 0.990469360349999994 1
0.140625 0.1875 0.999119934079999994 0.999119934079999994 1
0.1484375 0.1875 0.993057250980000084 0.993057250980000084 1
0.15625 0.1875 0.990965820310000023 0.990965820310000023 1
0.1640625 0.1875 0.991186645509999908 0.991186645509999908 1
0.171875 0.1875 0.99235797118999991 0.99235797118999991 1
0.1796875 0.1875 0.985463806149999955 0.985463806149999955 1
0.1875 0.1875 0.985804870609999995 0.985804870609999995 1
0.1953125 0.1875 0.987736999510000047 0.987736999510000047 1
0.203125 0.1875 0.994546630860000058 0.994546630860000058 1
0.2109375 0.1875 0.987303222659999924 0.987303222659999924 1
0.21875 0.1875 0.985164916990000084 0.985164916990000084 1
0.2265625 0.1875 0.979080993650000009 0.979080993650000009 1
0.234375 0.1875 0.977715576169999934 0.977715576169999934 1
0.2421875 0.1875 0.972192810060000023 0.972192810060000023 1
0.25 0.1875 0.97545855713000007 0.97545855713000007 1
0.2578125 0.1875 0.980610412600000036 0.980610412600000036 1
0.265625 0.1875 0.988971130369999951 0.988971130369999951 1
0.2734375 0.1875 0.987397216800000033 0.987397216800000033 1
0.28125 0.1875 0.996818054200000025 0.996818054200000025 1
0.2890625 0.1875 1.01120428467000001 1.01120428467000001 1
0.296875 0.1875 1.02351037597999994 1.02351037597999994 1
0.3046875 0.1875 1.0192489013699999 1.0192489013699999 1
0.3125 0.1875 1.02158258057000007 1.02158258057000007 1
0.3203125 0.1875 1.02605920410000007 1.02605920410000007 1
0.328125 0.1875 1.02746374512000016 1.02746374512000016 1
0.3359375 0.1875 1.02052044677999998 1.02052044677999998 1
0.34375 0.1875 1.01988592529000011 1.01988592529000011 1
0.3515625 0.1875 1.02022686768000015 1.02022686768000015 1
0.359375 0.1875 1.02049737548999997 1.02049737548999997 1
0.3671875 0.1875 1.01592980957000001 1.01592980957000001 1
0.375 0.1875 1.02114294433999997 1.02114294433999997 1
0.3828125 0.1875 1.02975415038999984 1.02975415038999984 1
0.390625 0.1875 1.03618212891000017 1.03618212891000017 1
0.3984375 0.1875 1.03070056152 1.03070056152 1
0.40625 0.1875 1.03281054687999996 1.03281054687999996 1
0.4140625 0.1875 1.03618872070000001 1.03618872070000001 1
0.421875 0.1875 1.03962866211000016 1.03962866211000016 1
0.4296875 0.1875 1.0331461181599999 1.0331461181599999 1
0.4375 0.1875 1.03427807617000012 1.03427807617000012 1
0.4453125 0.1875 1.03332385253999992 1.03332385253999992 1
0.453125 0.1875 1.03488305664000002 1.03488305664000002 1
0.4609375 0.1875 1.02816894531000003 1.02816894531000003 1
0.46875 0.1875 1.02758715820000002 1.02758715820000002 1
0.4765625 0.1875 1.02720178222999992 1.02720178222999992 1
0.484375 0.1875 1.02372509765999986 1.02372509765999986 1
0.4921875 0.1875 1.01554333496000004 1.01554333496000004 1
0.5 0.1875 1.01198931884999999 1.01198931884999999 1
0.5078125 0.1875 1.01478228760000011 1.01478228760000011 1
0.515625 0.1875 1.01349676513999998 1.01349676513999998 1
0.5234375 0.1875 1.00820056152000004 1.00820056152000004 1
0.53125 0.1875 1.01082275390999987 1.01082275390999987 1
0.5390625 0.1875 1.01836950684000005 1.01836950684000005 1
0.546875 0.1875 1.02185009766000001 1.02185009766000001 1
0.5546875 0.1875 1.01729345703000007 1.01729345703000007 1
0.5625 0.1875 1.01753491211000013 1.01753491211000013 1
0.5703125 0.1875 1.02536840820000008 1.02536840820000008 1
0.578125 0.1875 1.02994323729999993 1.02994323729999993 1
0.5859375 0.1875 1.02398120117000002 1.02398120117000002 1
0.59375 0.1875 1.01916851807000008 1.01916851807000008 1
0.6015625 0.1875 1.01808636475000003 1.01808636475000003 1
0.609375 0.1875 1.00649450683999997 1.00649450683999997 1
0.6171875 0.1875 0.999605346680000006 0.999605346680000006 1
0.625 0.1875 1.00078881836 1.00078881836 1
0.6328125 0.1875 1.01317639160000006 1.01317639160000006 1
0.640625 0.1875 1.02119842529000016 1.02119842529000016 1
0.6484375 0.1875 1.02142694092000008 1.02142694092000008 1
0.65625 0.1875 1.03220458983999985 1.03220458983999985 1
0.6640625 0.1875 1.04869799804999997 1.04869799804999997 1
0.671875 0.1875 1.06082128905999995 1.06082128905999995 1
0.6796875 0.1875 1.0546455078100001 1.0546455078100001 1
0.6875 0.1875 1.05135925292999999 1.05135925292999999 1
0.6953125 0.1875 1.04627978516000009 1.04627978516000009 1
0.703125 0.1875 1.03908020020000014 1.03908020020000014 1
0.7109375 0.1875 1.02975549315999992 1.02975549315999992 1
0.71875 0.1875 1.02526806641000001 1.02526806641000001 1
0.7265625 0.1875 1.02231878661999986 1.02231878661999986 1
0.734375 0.1875 1.01349224853999997 1.01349224853999997 1
0.7421875 0.1875 1.00632598877000001 1.00632598877000001 1
0.75 0.1875 1.00872009276999997 1.00872009276999997 1
0.7578125 0.1875 1.02012274170000006 1.02012274170000006 1
0.765625 0.1875 1.02701843262000003 1.02701843262000003 1
0.7734375 0.1875 1.02092016602000002 1.02092016602000002 1
0.78125 0.1875 1.01537738036999992 1.01537738036999992 1
0.7890625 0.1875 1.01530566406 1.01530566406 1
0.796875 0.1875 1.00693194579999989 1.00693194579999989 1
0.8046875 0.1875 0.997951049799999934 0.997951049799999934 1
0.8125 0.1875 0.995200622560000081 0.995200622560000081 1
0.8203125 0.1875 0.996191772460000013 0.996191772460000013 1
0.828125 0.1875 0.999949157710000036 0.999949157710000036 1
0.8359375 0.1875 0.995403686519999997 0.995403686519999997 1
0.84375 0.1875 1.00099554443000005 1.00099554443000005 1
0.8515625 0.1875 1.00602050780999996 1.00602050780999996 1
0.859375 0.1875 1.01546313477000005 1.01546313477000005 1
0.8671875 0.1875 1.01073480225000001 1.01073480225000001 1
0.875 0.1875 1.0125328979499999 1.0125328979499999 1
0.8828125 0.1875 1.01396343993999993 1.01396343993999993 1
0.890625 0.1875 1.01272900390999987 1.01272900390999987 1
0.8984375 0.1875 1.0053881225600001 1.0053881225600001 1
0.90625 0.1875 1.00253735351999995 1.00253735351999995 1
0.9140625 0.1875 1.00670111083999991 1.00670111083999991 1
0.921875 0.1875 1.00648278809000002 1.00648278809000002 1
0.9296875 0.1875 1.00052191161999993 1.00052191161999993 1
0.9375 0.1875 0.99784820556999998 0.99784820556999998 1
0.9453125 0.1875 1.00199835204999999 1.00199835204999999 1
0.953125 0.1875 1.00248217772999992 1.00248217772999992 1
0.9609375 0.1875 1.00061413574000002 1.00061413574000002 1
0.96875 0.1875 0.996784545899999985 0.996784545899999985 1
0.9765625 0.1875 1.00087060547000006 1.00087060547000006 1
0.984375 0.1875 0.978788452149999988 0.978788452149999988 1
0.9921875 0.1875 0.996029541019999964 0.996029541019999964 1
0 0.1953125 0.906164611819999966 0.906164611819999966 1
0.0078125 0.1953125 0.905452026369999996 0.905452026369999996 1
0.015625 0.1953125 0.912701049799999997 0.912701049799999997 1
0.0234375 0.1953125 0.93281225586000005 0.93281225586000005 1
0.03125 0.1953125 0.941022277830000031 0.941022277830000031 1
0.0390625 0.1953125 0.958362731929999989 0.958362731929999989 1
0.046875 0.1953125 0.96323101807 0.96323101807 1
0.0546875 0.1953125 0.967108703610000009 0.967108703610000009 1
0.0625 0.1953125 0.971997009279999991 0.971997009279999991 1
0.0703125 0.1953125 0.976953613279999966 0.976953613279999966 1
0.078125 0.1953125 0.988580688480000025 0.988580688480000025 1
0.0859375 0.1953125 0.984854125979999995 0.984854125979999995 1
0.09375 0.1953125 0.986739013669999943 0.986739013669999943 1
0.1015625 0.1953125 0.986642456050000005 0.986642456050000005 1
0.109375 0.1953125 0.991610534670000043 0.991610534670000043 1
0.1171875 0.1953125 0.986343139649999978 0.986343139649999978 1
0.125 0.1953125 0.990776428220000005 0.990776428220000005 1
0.1328125 0.1953125 0.995470336909999975 0.995470336909999975 1
0.140625 0.1953125 1.00438073729999999 1.00438073729999999 1
0.1484375 0.1953125 0.998851135250000022 0.998851135250000022 1
0.15625 0.1953125 0.998437194819999929 0.998437194819999929 1
0.1640625 0.1953125 0.995733581540000023 0.995733581540000023 1
0.171875 0.1953125 0.999153503419999978 0.999153503419999978 1
0.1796875 0.1953125 0.993787109379999922 0.993787109379999922 1
0.1875 0.1953125 0.995732910159999984 0.995732910159999984 1
0.1953125 0.1953125 0.995155578610000036 0.995155578610000036 1
0.203125 0.1953125 1.00536682128999999 1.00536682128999999 1
0.2109375 0.1953125 1.00013641356999994 1.00013641356999994 1
0.21875 0.1953125 0.998521606449999988 0.998521606449999988 1
0.2265625 0.1953125 0.990278747560000006 0.990278747560000006 1
0.234375 0.1953125 0.988544860839999928 0.988544860839999928 1
0.2421875 0.1953125 0.983332031250000016 0.983332031250000016 1
0.25 0.1953125 0.987062499999999954 0.987062499999999954 1
0.2578125 0.1953125 0.988592224119999918 0.988592224119999918 1
0.265625 0.1953125 0.996140625000000002 0.996140625000000002 1
0.2734375 0.1953125 0.994522766110000012 0.994522766110000012 1
0.28125 0.1953125 1.00426422118999992 1.00426422118999992 1
0.2890625 0.1953125 1.01445343018000012 1.01445343018000012 1
0.296875 0.1953125 1.02599194335999999 1.02599194335999999 1
0.3046875 0.1953125 1.02180181884999999 1.02180181884999999 1
0.3125 0.1953125 1.02564636230000006 1.02564636230000006 1
0.3203125 0.1953125 1.02773498534999996 1.02773498534999996 1
0.328125 0.1953125 1.03345349120999996 1.03345349120999996 1
0.3359375 0.1953125 1.02756433105 1.02756433105 1
0.34375 0.1953125 1.02793286132999984 1.02793286132999984 1
0.3515625 0.1953125 1.02564514160000009 1.02564514160000009 1
0.359375 0.1953125 1.02695507812000009 1.02695507812000009 1
0.3671875 0.1953125 1.02244787597999998 1.02244787597999998 1
0.375 0.1953125 1.02822509766000003 1.02822509766000003 1
0.3828125 0.1953125 1.03361328125000007 1.03361328125000007 1
0.390625 0.1953125 1.04008752441000007 1.04008752441000007 1
0.3984375 0.1953125 1.03495910645000011 1.03495910645000011 1
0.40625 0.1953125 1.03895605469000007 1.03895605469000007 1
0.4140625 0.1953125 1.04058374023 1.04058374023 1
0.421875 0.1953125 1.04959851073999988 1.04959851073999988 1
0.4296875 0.1953125 1.04460058594000005 1.04460058594000005 1
0.4375 0.1953125 1.04620471190999997 1.04620471190999997 1
0.4453125 0.1953125 1.04278869628999993 1.04278869628999993 1
0.453125 0.1953125 1.04387023926000011 1.04387023926000011 1
0.4609375 0.1953125 1.03657470702999999 1.03657470702999999 1
0.46875 0.1953125 1.03591540527000014 1.03591540527000014 1
0.4765625 0.1953125 1.0319543457 1.0319543457 1
0.484375 0.1953125 1.0260579834000001 1.0260579834000001 1
0.4921875 0.1953125 1.01637390136999994 1.01637390136999994 1
0.5 0.1953125 1.01525390624999989 1.01525390624999989 1
0.5078125 0.1953125 1.01467114258000013 1.01467114258000013 1
0.515625 0.1953125 1.01781671143000008 1.01781671143000008 1
0.5234375 0.1953125 1.01247717284999994 1.01247717284999994 1
0.53125 0.1953125 1.01658251953000001 1.01658251953000001 1
0.5390625 0.1953125 1.02049139404 1.02049139404 1
0.546875 0.1953125 1.02501831054999992 1.02501831054999992 1
0.5546875 0.1953125 1.01994030761999999 1.01994030761999999 1
0.5625 0.1953125 1.02151013183999995 1.02151013183999995 1
0.5703125 0.1953125 1.02403588867000006 1.02403588867000006 1
0.578125 0.1953125 1.03066296387 1.03066296387 1
0.5859375 0.1953125 1.02358013916000012 1.02358013916000012 1
0.59375 0.1953125 1.02105175781000002 1.02105175781000002 1
0.6015625 0.1953125 1.01657751465000001 1.01657751465000001 1
0.609375 0.1953125 1.00773144530999992 1.00773144530999992 1
0.6171875 0.1953125 0.999472961430000084 0.999472961430000084 1
0.625 0.1953125 1.00279577636999995 1.00279577636999995 1
0.6328125 0.1953125 1.0105198364300001 1.0105198364300001 1
0.640625 0.1953125 1.02141162108999994 1.02141162108999994 1
0.6484375 0.1953125 1.02226159667999994 1.02226159667999994 1
0.65625 0.1953125 1.03422827148000018 1.03422827148000018 1
0.6640625 0.1953125 1.04764868163999991 1.04764868163999991 1
0.671875 0.1953125 1.06534655762000008 1.06534655762000008 1
0.6796875 0.1953125 1.06081555175999998 1.06081555175999998 1
0.6875 0.1953125 1.05848864745999993 1.05848864745999993 1
0.6953125 0.1953125 1.05065136718999996 1.05065136718999996 1
0.703125 0.1953125 1.04460546874999993 1.04460546874999993 1
0.7109375 0.1953125 1.03316064452999989 1.03316064452999989 1
0.71875 0.1953125 1.03151306152000011 1.03151306152000011 1
0.7265625 0.1953125 1.02670544433999988 1.02670544433999988 1
0.734375 0.1953125 1.01990130614999996 1.01990130614999996 1
0.7421875 0.1953125 1.01161767577999995 1.01161767577999995 1
0.75 0.1953125 1.01473443603999991 1.01473443603999991 1
0.7578125 0.1953125 1.02077435302999997 1.02077435302999997 1
0.765625 0.1953125 1.02498547362999992 1.02498547362999992 1
0.7734375 0.1953125 1.01777282714999995 1.01777282714999995 1
0.78125 0.1953125 1.01436962890999993 1.01436962890999993 1
0.7890625 0.1953125 1.01161987305000012 1.01161987305000012 1
0.796875 0.1953125 1.00906604004 1.00906604004 1
0.8046875 0.1953125 1.00175494384999997 1.00175494384999997 1
0.8125 0.1953125 1.00140362549000006 1.00140362549000006 1
0.8203125 0.1953125 1.00088598633000014 1.00088598633000014 1
0.828125 0.1953125 1.00921557616999991 1.00921557616999991 1
0.8359375 0.1953125 1.0069206543 1.0069206543 1
0.84375 0.1953125 1.01292346191000004 1.01292346191000004 1
0.8515625 0.1953125 1.01558612060999987 1.01558612060999987 1
0.859375 0.1953125 1.02440332031000003 1.02440332031000003 1
0.8671875 0.1953125 1.01968194579999993 1.01968194579999993 1
0.875 0.1953125 1.02114807129000007 1.02114807129000007 1
0.8828125 0.1953125 1.01880017090000008 1.01880017090000008 1
0.890625 0.1953125 1.01529626465000011 1.01529626465000011 1
0.8984375 0.1953125 1.00735931396000011 1.00735931396000011 1
0.90625 0.1953125 1.0057226562499999 1.0057226562499999 1
0.9140625 0.1953125 1.00562707520000005 1.00562707520000005 1
0.921875 0.1953125 1.00643084717000009 1.00643084717000009 1
0.9296875 0.1953125 1.00017706298999998 1.00017706298999998 1
0.9375 0.1953125 1.00016711425999993 1.00016711425999993 1
0.9453125 0.1953125 1.00067010497999997 1.00067010497999997 1
0.953125 0.1953125 1.00701544189000014 1.00701544189000014 1
0.9609375 0.1953125 1.0144019165 1.0144019165 1
0.96875 0.1953125 1.01355352783000008 1.01355352783000008 1
0.9765625 0.1953125 0.988810974119999964 0.988810974119999964 1
0.984375 0.1953125 0.988586669919999994 0.988586669919999994 1
0.9921875 0.1953125 1.00910266113000002 1.00910266113000002 1
