ply
format ascii 1.0
element vertex 997
property double x
property double y
property double z
property double depth
property double albedo
end_header
1.75 0.1875 0 0 1
1.765625 0.1875 0 0 1
1.78125 0.1875 0 0 1
1.796875 0.1875 0 0 1
1.8125 0.1875 0 0 1
1.828125 0.1875 0 0 1
1.84375 0.1875 0 0 1
1.859375 0.1875 0 0 1
1.875 0.1875 0 0 1
1.890625 0.1875 0 0 1
1.90625 0.1875 0 0 1
1.921875 0.1875 0 0 1
1.9375 0.1875 0 0 1
1.953125 0.1875 0 0 1
1.96875 0.1875 0 0 1
1.984375 0.1875 0 0 1
0 0.203125 0 0 1
0.015625 0.203125 0 0 1
0.03125 0.203125 0 0 1
0.046875 0.203125 0 0 1
0.0625 0.203125 0 0 1
0.078125 0.203125 0 0 1
0.09375 0.203125 0 0 1
0.109375 0.203125 0 0 1
0.125 0.203125 0 0 1
0.140625 0.203125 0 0 1
0.15625 0.203125 0 0 1
0.171875 0.203125 0 0 1
0.1875 0.203125 0 0 1
0.203125 0.203125 0 0 1
0.21875 0.203125 0 0 1
0.234375 0.203125 0 0 1
0.25 0.203125 0 0 1
0.265625 0.203125 0 0 1
0.28125 0.203125 0 0 1
0.296875 0.203125 0 0 1
0.3125 0.203125 0 0 1
0.328125 0.203125 0 0 1
0.34375 0.203125 0 0 1
0.359375 0.203125 0 0 1
0.375 0.203125 0 0 1
0.390625 0.203125 0 0 1
0.40625 0.203125 0.111584819195982038 0.111584819195982038 1
0.421875 0.203125 0.175390190005028507 0.175390190005028507 1
0.4375 0.203125 0.220417749682279451 0.220417749682279451 1
0.453125 0.203125 0.256744948830546604 0.256744948830546604 1
0.46875 0.203125 0.287686759992530738 0.287686759992530738 1
0.484375 0.203125 0.31483502624390447 0.31483502624390447 1
0.5 0.203125 0.339102100222042291 0.339102100222042291 1
0.515625 0.203125 0.361069375259104486 0.361069375259104486 1
0.53125 0.203125 0.381134716176577126 0.381134716176577126 1
0.546875 0.203125 0.399584745392013163 0.399584745392013163 1
0.5625 0.203125 0.416634113311668219 0.416634113311668219 1
0.578125 0.203125 0.432448515721813975 0.432448515721813975 1
0.59375 0.203125 0.447159000664193285 0.447159000664193285 1
0.609375 0.203125 0.460871287617269532 0.460871287617269532 1
0.625 0.203125 0.473672074725753678 0.473672074725753678 1
0.640625 0.203125 0.485633445872501679 0.485633445872501679 1
0.65625 0.203125 0.496816034237020199 0.496816034237020199 1
0.671875 0.203125 0.50727134627337267 0.50727134627337267 1
0.6875 0.203125 0.5170435033679468 0.5170435033679468 1
0.703125 0.203125 0.526170570015085493 0.526170570015085493 1
0.71875 0.203125 0.534685582258396019 0.534685582258396019 1
0.734375 0.203125 0.542617354818291764 0.542617354818291764 1
0.75 0.203125 0.549991122087438833 0.549991122087438833 1
0.765625 0.203125 0.556829052537670677 0.556829052537670677 1
0.78125 0.203125 0.563150665341878076 0.563150665341878076 1
0.796875 0.203125 0.56897317050103513 0.56897317050103513 1
0.8125 0.203125 0.57431174842153454 0.57431174842153454 1
0.828125 0.203125 0.579179781026582408 0.579179781026582408 1
0.84375 0.203125 0.58358904365572184 0.58358904365572184 1
0.859375 0.203125 0.587549864905098973 0.587549864905098973 1
0.875 0.203125 0.59107125998055432 0.59107125998055432 1
0.890625 0.203125 0.594161041932235734 0.594161041932235734 1
0.90625 0.203125 0.596825914212008701 0.596825914212008701 1
0.921875 0.203125 0.599071547271275429 0.599071547271275429 1
0.9375 0.203125 0.600902641344669086 0.600902641344669086 1
0.953125 0.203125 0.602322977106136914 0.602322977106136914 1
0.96875 0.203125 0.603335455509619423 0.603335455509619423 1
0.984375 0.203125 0.603942127815240259 0.603942127815240259 1
1 0.203125 0.604144216536912637 0.604144216536912637 1
1.015625 0.203125 0.603942127815240259 0.603942127815240259 1
1.03125 0.203125 0.603335455509619423 0.603335455509619423 1
1.046875 0.203125 0.602322977106136914 0.602322977106136914 1
1.0625 0.203125 0.600902641344669086 0.600902641344669086 1
1.078125 0.203125 0.599071547271275429 0.599071547271275429 1
1.09375 0.203125 0.596825914212008701 0.596825914212008701 1
1.109375 0.203125 0.594161041932235734 0.594161041932235734 1
1.125 0.203125 0.59107125998055432 0.59107125998055432 1
1.140625 0.203125 0.587549864905098973 0.587549864905098973 1
1.15625 0.203125 0.58358904365572184 0.58358904365572184 1
1.171875 0.203125 0.579179781026582408 0.579179781026582408 1
1.1875 0.203125 0.57431174842153454 0.57431174842153454 1
1.203125 0.203125 0.56897317050103513 0.56897317050103513 1
1.21875 0.203125 0.563150665341878076 0.563150665341878076 1
1.234375 0.203125 0.556829052537670677 0.556829052537670677 1
1.25 0.203125 0.549991122087438833 0.549991122087438833 1
1.265625 0.203125 0.542617354818291764 0.542617354818291764 1
1.28125 0.203125 0.534685582258396019 0.534685582258396019 1
1.296875 0.203125 0.526170570015085493 0.526170570015085493 1
1.3125 0.203125 0.5170435033679468 0.5170435033679468 1
1.328125 0.203125 0.50727134627337267 0.50727134627337267 1
1.34375 0.203125 0.496816034237020199 0.496816034237020199 1
1.359375 0.203125 0.485633445872501679 0.485633445872501679 1
1.375 0.203125 0.473672074725753678 0.473672074725753678 1
1.390625 0.203125 0.460871287617269532 0.460871287617269532 1
1.40625 0.203125 0.447159000664193285 0.447159000664193285 1
1.421875 0.203125 0.432448515721813975 0.432448515721813975 1
1.4375 0.203125 0.416634113311668219 0.416634113311668219 1
1.453125 0.203125 0.399584745392013163 0.399584745392013163 1
1.46875 0.203125 0.381134716176577126 0.381134716176577126 1
1.484375 0.203125 0.361069375259104486 0.361069375259104486 1
1.5 0.203125 0.339102100222042291 0.339102100222042291 1
1.515625 0.203125 0.31483502624390447 0.31483502624390447 1
1.53125 0.203125 0.287686759992530738 0.287686759992530738 1
1.546875 0.203125 0.256744948830546604 0.256744948830546604 1
1.5625 0.203125 0.220417749682279451 0.220417749682279451 1
1.578125 0.203125 0.175390190005028507 0.175390190005028507 1
1.59375 0.203125 0.111584819195982038 0.111584819195982038 1
1.609375 0.203125 0 0 1
1.625 0.203125 0 0 1
1.640625 0.203125 0 0 1
1.65625 0.203125 0 0 1
1.671875 0.203125 0 0 1
1.6875 0.203125 0 0 1
1.703125 0.203125 0 0 1
1.71875 0.203125 0 0 1
1.734375 0.203125 0 0 1
1.75 0.203125 0 0 1
1.765625 0.203125 0 0 1
1.78125 0.203125 0 0 1
1.796875 0.203125 0 0 1
1.8125 0.203125 0 0 1
1.828125 0.203125 0 0 1
1.84375 0.203125 0 0 1
1.859375 0.203125 0 0 1
1.875 0.203125 0 0 1
1.890625 0.203125 0 0 1
1.90625 0.203125 0 0 1
1.921875 0.203125 0 0 1
1.9375 0.203125 0 0 1
1.953125 0.203125 0 0 1
1.96875 0.203125 0 0 1
1.984375 0.203125 0 0 1
0 0.21875 0 0 1
0.015625 0.21875 0 0 1
0.03125 0.21875 0 0 1
0.046875 0.21875 0 0 1
0.0625 0.21875 0 0 1
0.078125 0.21875 0 0 1
0.09375 0.21875 0 0 1
0.109375 0.21875 0 0 1
0.125 0.21875 0 0 1
0.140625 0.21875 0 0 1
0.15625 0.21875 0 0 1
0.171875 0.21875 0 0 1
0.1875 0.21875 0 0 1
0.203125 0.21875 0 0 1
0.21875 0.21875 0 0 1
0.234375 0.21875 0 0 1
0.25 0.21875 0 0 1
0.265625 0.21875 0 0 1
0.28125 0.21875 0 0 1
0.296875 0.21875 0 0 1
0.3125 0.21875 0 0 1
0.328125 0.21875 0 0 1
0.34375 0.21875 0 0 1
0.359375 0.21875 0 0 1
0.375 0.21875 0 0 1
0.390625 0.21875 0.135316469341318552 0.135316469341318552 1
0.40625 0.21875 0.1926379375927805 0.1926379375927805 1
0.421875 0.21875 0.235414362083115059 0.235414362083115059 1
0.4375 0.21875 0.270632938682637103 0.270632938682637103 1
0.453125 0.21875 0.300958754441534748 0.300958754441534748 1
0.46875 0.21875 0.327752765053172357 0.327752765053172357 1
0.484375 0.21875 0.351822820287428173 0.351822820287428173 1
0.5 0.21875 0.373695648221918697 0.373695648221918697 1
0.515625 0.21875 0.393737599011067252 0.393737599011067252 1
0.53125 0.21875 0.412215811196028736 0.412215811196028736 1
0.546875 0.21875 0.429332239501065194 0.429332239501065194 1
0.5625 0.21875 0.445243964024218952 0.445243964024218952 1
0.578125 0.21875 0.460075995760483025 0.460075995760483025 1
0.59375 0.21875 0.473929715253221917 0.473929715253221917 1
0.609375 0.21875 0.486888639090090114 0.486888639090090114 1
0.625 0.21875 0.499022481958478481 0.499022481958478481 1
0.640625 0.21875 0.510390092845658616 0.510390092845658616 1
0.65625 0.21875 0.521041625016658294 0.521041625016658294 1
0.671875 0.21875 0.531020170873950925 0.531020170873950925 1
0.6875 0.21875 0.540363014555955701 0.540363014555955701 1
0.703125 0.21875 0.549102605962674351 0.549102605962674351 1
0.71875 0.21875 0.557267328128968953 0.557267328128968953 1
0.734375 0.21875 0.564882108828913099 0.564882108828913099 1
0.75 0.21875 0.571968913053847672 0.571968913053847672 1
0.765625 0.21875 0.578547143174175549 0.578547143174175549 1
0.78125 0.21875 0.584633966683428374 0.584633966683428374 1
0.796875 0.21875 0.590244586485128231 0.590244586485128231 1
0.8125 0.21875 0.595392465101801549 0.595392465101801549 1
0.828125 0.21875 0.600089511552235 0.600089511552235 1
0.84375 0.21875 0.604346237681678611 0.604346237681678611 1
0.859375 0.21875 0.608171889250892606 0.608171889250892606 1
0.875 0.21875 0.61157455596190391 0.61157455596190391 1
0.890625 0.21875 0.614561263728035545 0.614561263728035545 1
0.90625 0.21875 0.617138051816609301 0.617138051816609301 1
0.921875 0.21875 0.619310036956450483 0.619310036956450483 1
0.9375 0.21875 0.62108146607349346 0.62108146607349346 1
0.953125 0.21875 0.622455758970065332 0.622455758970065332 1
0.96875 0.21875 0.623435541976875118 0.623435541976875118 1
0.984375 0.21875 0.624022673366120606 0.624022673366120606 1
1 0.21875 0.624218261107443051 0.624218261107443051 1
1.015625 0.21875 0.624022673366120606 0.624022673366120606 1
1.03125 0.21875 0.623435541976875118 0.623435541976875118 1
1.046875 0.21875 0.622455758970065332 0.622455758970065332 1
1.0625 0.21875 0.62108146607349346 0.62108146607349346 1
1.078125 0.21875 0.619310036956450483 0.619310036956450483 1
1.09375 0.21875 0.617138051816609301 0.617138051816609301 1
1.109375 0.21875 0.614561263728035545 0.614561263728035545 1
1.125 0.21875 0.61157455596190391 0.61157455596190391 1
1.140625 0.21875 0.608171889250892606 0.608171889250892606 1
1.15625 0.21875 0.604346237681678611 0.604346237681678611 1
1.171875 0.21875 0.600089511552235 0.600089511552235 1
1.1875 0.21875 0.595392465101801549 0.595392465101801549 1
1.203125 0.21875 0.590244586485128231 0.590244586485128231 1
1.21875 0.21875 0.584633966683428374 0.584633966683428374 1
1.234375 0.21875 0.578547143174175549 0.578547143174175549 1
1.25 0.21875 0.571968913053847672 0.571968913053847672 1
1.265625 0.21875 0.564882108828913099 0.564882108828913099 1
1.28125 0.21875 0.557267328128968953 0.557267328128968953 1
1.296875 0.21875 0.549102605962674351 0.549102605962674351 1
1.3125 0.21875 0.540363014555955701 0.540363014555955701 1
1.328125 0.21875 0.531020170873950925 0.531020170873950925 1
1.34375 0.21875 0.521041625016658294 0.521041625016658294 1
1.359375 0.21875 0.510390092845658616 0.510390092845658616 1
1.375 0.21875 0.499022481958478481 0.499022481958478481 1
1.390625 0.21875 0.486888639090090114 0.486888639090090114 1
1.40625 0.21875 0.473929715253221917 0.473929715253221917 1
1.421875 0.21875 0.460075995760483025 0.460075995760483025 1
1.4375 0.21875 0.445243964024218952 0.445243964024218952 1
1.453125 0.21875 0.429332239501065194 0.429332239501065194 1
1.46875 0.21875 0.412215811196028736 0.412215811196028736 1
1.484375 0.21875 0.393737599011067252 0.393737599011067252 1
1.5 0.21875 0.373695648221918697 0.373695648221918697 1
1.515625 0.21875 0.351822820287428173 0.351822820287428173 1
1.53125 0.21875 0.327752765053172357 0.327752765053172357 1
1.546875 0.21875 0.300958754441534748 0.300958754441534748 1
1.5625 0.21875 0.270632938682637103 0.270632938682637103 1
1.578125 0.21875 0.235414362083115059 0.235414362083115059 1
1.59375 0.21875 0.1926379375927805 0.1926379375927805 1
1.609375 0.21875 0.135316469341318552 0.135316469341318552 1
1.625 0.21875 0 0 1
1.640625 0.21875 0 0 1
1.65625 0.21875 0 0 1
1.671875 0.21875 0 0 1
1.6875 0.21875 0 0 1
1.703125 0.21875 0 0 1
1.71875 0.21875 0 0 1
1.734375 0.21875 0 0 1
1.75 0.21875 0 0 1
1.765625 0.21875 0 0 1
1.78125 0.21875 0 0 1
1.796875 0.21875 0 0 1
1.8125 0.21875 0 0 1
1.828125 0.21875 0 0 1
1.84375 0.21875 0 0 1
1.859375 0.21875 0 0 1
1.875 0.21875 0 0 1
1.890625 0.21875 0 0 1
1.90625 0.21875 0 0 1
1.921875 0.21875 0 0 1
1.9375 0.21875 0 0 1
1.953125 0.21875 0 0 1
1.96875 0.21875 0 0 1
1.984375 0.21875 0 0 1
0 0.234375 0 0 1
0.015625 0.234375 0 0 1
0.03125 0.234375 0 0 1
0.046875 0.234375 0 0 1
0.0625 0.234375 0 0 1
0.078125 0.234375 0 0 1
0.09375 0.234375 0 0 1
0.109375 0.234375 0 0 1
0.125 0.234375 0 0 1
0.140625 0.234375 0 0 1
0.15625 0.234375 0 0 1
0.171875 0.234375 0 0 1
0.1875 0.234375 0 0 1
0.203125 0.234375 0 0 1
0.21875 0.234375 0 0 1
0.234375 0.234375 0 0 1
0.25 0.234375 0 0 1
0.265625 0.234375 0 0 1
0.28125 0.234375 0 0 1
0.296875 0.234375 0 0 1
0.3125 0.234375 0 0 1
0.328125 0.234375 0 0 1
0.34375 0.234375 0 0 1
0.359375 0.234375 0.0584633966683428333 0.0584633966683428333 1
0.375 0.234375 0.152293661637640049 0.152293661637640049 1
0.390625 0.234375 0.206107905598014368 0.206107905598014368 1
0.40625 0.234375 0.247546554964919674 0.247546554964919674 1
0.421875 0.234375 0.282116720082309202 0.282116720082309202 1
0.4375 0.234375 0.312109130553721525 0.312109130553721525 1
0.453125 0.234375 0.338741927948106258 0.338741927948106258 1
0.46875 0.234375 0.362755836445121882 0.362755836445121882 1
0.484375 0.234375 0.38464167578409908 0.38464167578409908 1
0.5 0.234375 0.404744807718394328 0.404744807718394328 1
0.515625 0.234375 0.423319287004502054 0.423319287004502054 1
0.53125 0.234375 0.440558505620990137 0.440558505620990137 1
0.546875 0.234375 0.456613724881326788 0.456613724881326788 1
0.5625 0.234375 0.471605883524580327 0.471605883524580327 1
0.578125 0.234375 0.485633445872501679 0.485633445872501679 1
0.59375 0.234375 0.498777803109761497 0.498777803109761497 1
0.609375 0.234375 0.511107101056128887 0.511107101056128887 1
0.625 0.234375 0.522679021364929053 0.522679021364929053 1
0.640625 0.234375 0.533542846217621047 0.533542846217621047 1
0.65625 0.234375 0.543741020040791057 0.543741020040791057 1
0.671875 0.234375 0.553310350300805442 0.553310350300805442 1
0.6875 0.234375 0.562282944232705639 0.562282944232705639 1
0.703125 0.234375 0.570686948992177312 0.570686948992177312 1
0.71875 0.234375 0.578547143174175549 0.578547143174175549 1
0.734375 0.234375 0.585885414351646094 0.585885414351646094 1
0.75 0.234375 0.592721148074708104 0.592721148074708104 1
0.765625 0.234375 0.599071547271275429 0.599071547271275429 1
0.78125 0.234375 0.604951896331435646 0.604951896331435646 1
0.796875 0.234375 0.610375780769519038 0.610375780769519038 1
0.8125 0.234375 0.615355270859850534 0.615355270859850534 1
0.828125 0.234375 0.619901075777417931 0.619901075777417931 1
0.84375 0.234375 0.624022673366120606 0.624022673366120606 1
0.859375 0.234375 0.627728419581270791 0.627728419581270791 1
0.875 0.234375 0.631025640822145961 0.631025640822145961 1
0.890625 0.234375 0.633920711721899788 0.633920711721899788 1
0.90625 0.234375 0.636419120450509412 0.636419120450509412 1
0.921875 0.234375 0.638525523178204657 0.638525523178204657 1
0.9375 0.234375 0.640243789017121201 0.640243789017121201 1
0.953125 0.234375 0.641577036488994001 0.641577036488994001 1
0.96875 0.234375 0.642527662342252781 0.642527662342252781 1
0.984375 0.234375 0.643097363351771145 0.643097363351771145 1
1 0.234375 0.643287151569965632 0.643287151569965632 1
1.015625 0.234375 0.643097363351771145 0.643097363351771145 1
1.03125 0.234375 0.642527662342252781 0.642527662342252781 1
1.046875 0.234375 0.641577036488994001 0.641577036488994001 1
1.0625 0.234375 0.640243789017121201 0.640243789017121201 1
1.078125 0.234375 0.638525523178204657 0.638525523178204657 1
1.09375 0.234375 0.636419120450509412 0.636419120450509412 1
1.109375 0.234375 0.633920711721899788 0.633920711721899788 1
1.125 0.234375 0.631025640822145961 0.631025640822145961 1
1.140625 0.234375 0.627728419581270791 0.627728419581270791 1
1.15625 0.234375 0.624022673366120606 0.624022673366120606 1
1.171875 0.234375 0.619901075777417931 0.619901075777417931 1
1.1875 0.234375 0.615355270859850534 0.615355270859850534 1
1.203125 0.234375 0.610375780769519038 0.610375780769519038 1
1.21875 0.234375 0.604951896331435646 0.604951896331435646 1
1.234375 0.234375 0.599071547271275429 0.599071547271275429 1
1.25 0.234375 0.592721148074708104 0.592721148074708104 1
1.265625 0.234375 0.585885414351646094 0.585885414351646094 1
1.28125 0.234375 0.578547143174175549 0.578547143174175549 1
1.296875 0.234375 0.570686948992177312 0.570686948992177312 1
1.3125 0.234375 0.562282944232705639 0.562282944232705639 1
1.328125 0.234375 0.553310350300805442 0.553310350300805442 1
1.34375 0.234375 0.543741020040791057 0.543741020040791057 1
1.359375 0.234375 0.533542846217621047 0.533542846217621047 1
1.375 0.234375 0.522679021364929053 0.522679021364929053 1
1.390625 0.234375 0.511107101056128887 0.511107101056128887 1
1.40625 0.234375 0.498777803109761497 0.498777803109761497 1
1.421875 0.234375 0.485633445872501679 0.485633445872501679 1
1.4375 0.234375 0.471605883524580327 0.471605883524580327 1
1.453125 0.234375 0.456613724881326788 0.456613724881326788 1
1.46875 0.234375 0.440558505620990137 0.440558505620990137 1
1.484375 0.234375 0.423319287004502054 0.423319287004502054 1
1.5 0.234375 0.404744807718394328 0.404744807718394328 1
1.515625 0.234375 0.38464167578409908 0.38464167578409908 1
1.53125 0.234375 0.362755836445121882 0.362755836445121882 1
1.546875 0.234375 0.338741927948106258 0.338741927948106258 1
1.5625 0.234375 0.312109130553721525 0.312109130553721525 1
1.578125 0.234375 0.282116720082309202 0.282116720082309202 1
1.59375 0.234375 0.247546554964919674 0.247546554964919674 1
1.609375 0.234375 0.206107905598014368 0.206107905598014368 1
1.625 0.234375 0.152293661637640049 0.152293661637640049 1
1.640625 0.234375 0.0584633966683428333 0.0584633966683428333 1
1.65625 0.234375 0 0 1
1.671875 0.234375 0 0 1
1.6875 0.234375 0 0 1
1.703125 0.234375 0 0 1
1.71875 0.234375 0 0 1
1.734375 0.234375 0 0 1
1.75 0.234375 0 0 1
1.765625 0.234375 0 0 1
1.78125 0.234375 0 0 1
1.796875 0.234375 0 0 1
1.8125 0.234375 0 0 1
1.828125 0.234375 0 0 1
1.84375 0.234375 0 0 1
1.859375 0.234375 0 0 1
1.875 0.234375 0 0 1
1.890625 0.234375 0 0 1
1.90625 0.234375 0 0 1
1.921875 0.234375 0 0 1
1.9375 0.234375 0 0 1
1.953125 0.234375 0 0 1
1.96875 0.234375 0 0 1
1.984375 0.234375 0 0 1
0 0.25 0 0 1
0.015625 0.25 0 0 1
0.03125 0.25 0 0 1
0.046875 0.25 0 0 1
0.0625 0.25 0 0 1
0.078125 0.25 0 0 1
0.09375 0.25 0 0 1
0.109375 0.25 0 0 1
0.125 0.25 0 0 1
0.140625 0.25 0 0 1
0.15625 0.25 0 0 1
0.171875 0.25 0 0 1
0.1875 0.25 0 0 1
0.203125 0.25 0 0 1
0.21875 0.25 0 0 1
0.234375 0.25 0 0 1
0.25 0.25 0 0 1
0.265625 0.25 0 0 1
0.28125 0.25 0 0 1
0.296875 0.25 0 0 1
0.3125 0.25 0 0 1
0.328125 0.25 0 0 1
0.34375 0.25 0.0826797284707684599 0.0826797284707684599 1
0.359375 0.25 0.164619589888324036 0.164619589888324036 1
0.375 0.25 0.216506350946109649 0.216506350946109649 1
0.390625 0.25 0.257219963018036402 0.257219963018036402 1
0.40625 0.25 0.291480595409025489 0.291480595409025489 1
0.421875 0.25 0.321358809393798961 0.321358809393798961 1
0.4375 0.25 0.347985272676876345 0.347985272676876345 1
0.453125 0.25 0.372058778118458056 0.372058778118458056 1
0.46875 0.25 0.394047506653702861 0.394047506653702861 1
0.484375 0.25 0.414283549486339109 0.414283549486339109 1
0.5 0.25 0.433012701892219298 0.433012701892219298 1
0.515625 0.25 0.450422978293736676 0.450422978293736676 1
0.53125 0.25 0.466662016345877451 0.466662016345877451 1
0.546875 0.25 0.481848248284664826 0.481848248284664826 1
0.5625 0.25 0.496078370824610759 0.496078370824610759 1
0.578125 0.25 0.509432512090659539 0.509432512090659539 1
0.59375 0.25 0.521977909015314601 0.521977909015314601 1
0.609375 0.25 0.53377158914183509 0.53377158914183509 1
0.625 0.25 0.544862367942584247 0.544862367942584247 1
0.640625 0.25 0.555292363872401884 0.555292363872401884 1
0.65625 0.25 0.565098166250785128 0.565098166250785128 1
0.671875 0.25 0.57431174842153454 0.57431174842153454 1
0.6875 0.25 0.582961190818050978 0.582961190818050978 1
0.703125 0.25 0.59107125998055432 0.59107125998055432 1
0.71875 0.25 0.598663876895875524 0.598663876895875524 1
0.734375 0.25 0.605758499218128965 0.605758499218128965 1
0.75 0.25 0.61237243569579447 0.61237243569579447 1
0.765625 0.25 0.618521106652796471 0.618521106652796471 1
0.78125 0.25 0.624218261107443051 0.624218261107443051 1
0.796875 0.25 0.629476158702615196 0.629476158702615196 1
0.8125 0.25 0.634305722818263695 0.634305722818263695 1
0.828125 0.25 0.638716669874052956 0.638716669874052956 1
0.84375 0.25 0.642717618787597922 0.642717618787597922 1
0.859375 0.25 0.646316183748326112 0.646316183748326112 1
0.875 0.25 0.649519052838329003 0.649519052838329003 1
0.890625 0.25 0.65233205453587817 0.65233205453587817 1
0.90625 0.25 0.654760213742405117 0.654760213742405117 1
0.921875 0.25 0.656807798655740682 0.656807798655740682 1
0.9375 0.25 0.658478359553296144 0.658478359553296144 1
0.953125 0.25 0.659774760334919108 0.659774760334919108 1
0.96875 0.25 0.660699203495811682 0.660699203495811682 1
0.984375 0.25 0.661253249046838354 0.661253249046838354 1
1 0.25 0.661437827766147679 0.661437827766147679 1
1.015625 0.25 0.661253249046838354 0.661253249046838354 1
1.03125 0.25 0.660699203495811682 0.660699203495811682 1
1.046875 0.25 0.659774760334919108 0.659774760334919108 1
1.0625 0.25 0.658478359553296144 0.658478359553296144 1
1.078125 0.25 0.656807798655740682 0.656807798655740682 1
1.09375 0.25 0.654760213742405117 0.654760213742405117 1
1.109375 0.25 0.65233205453587817 0.65233205453587817 1
1.125 0.25 0.649519052838329003 0.649519052838329003 1
1.140625 0.25 0.646316183748326112 0.646316183748326112 1
1.15625 0.25 0.642717618787597922 0.642717618787597922 1
1.171875 0.25 0.638716669874052956 0.638716669874052956 1
1.1875 0.25 0.634305722818263695 0.634305722818263695 1
1.203125 0.25 0.629476158702615196 0.629476158702615196 1
1.21875 0.25 0.624218261107443051 0.624218261107443051 1
1.234375 0.25 0.618521106652796471 0.618521106652796471 1
1.25 0.25 0.61237243569579447 0.61237243569579447 1
1.265625 0.25 0.605758499218128965 0.605758499218128965 1
1.28125 0.25 0.598663876895875524 0.598663876895875524 1
1.296875 0.25 0.59107125998055432 0.59107125998055432 1
1.3125 0.25 0.582961190818050978 0.582961190818050978 1
1.328125 0.25 0.57431174842153454 0.57431174842153454 1
1.34375 0.25 0.565098166250785128 0.565098166250785128 1
1.359375 0.25 0.555292363872401884 0.555292363872401884 1
1.375 0.25 0.544862367942584247 0.544862367942584247 1
1.390625 0.25 0.53377158914183509 0.53377158914183509 1
1.40625 0.25 0.521977909015314601 0.521977909015314601 1
1.421875 0.25 0.509432512090659539 0.509432512090659539 1
1.4375 0.25 0.496078370824610759 0.496078370824610759 1
1.453125 0.25 0.481848248284664826 0.481848248284664826 1
1.46875 0.25 0.466662016345877451 0.466662016345877451 1
1.484375 0.25 0.450422978293736676 0.450422978293736676 1
1.5 0.25 0.433012701892219298 0.433012701892219298 1
1.515625 0.25 0.414283549486339109 0.414283549486339109 1
1.53125 0.25 0.394047506653702861 0.394047506653702861 1
1.546875 0.25 0.372058778118458056 0.372058778118458056 1
1.5625 0.25 0.347985272676876345 0.347985272676876345 1
1.578125 0.25 0.321358809393798961 0.321358809393798961 1
1.59375 0.25 0.291480595409025489 0.291480595409025489 1
1.609375 0.25 0.257219963018036402 0.257219963018036402 1
1.625 0.25 0.216506350946109649 0.216506350946109649 1
1.640625 0.25 0.164619589888324036 0.164619589888324036 1
1.65625 0.25 0.0826797284707684599 0.0826797284707684599 1
1.671875 0.25 0 0 1
1.6875 0.25 0 0 1
1.703125 0.25 0 0 1
1.71875 0.25 0 0 1
1.734375 0.25 0 0 1
1.75 0.25 0 0 1
1.765625 0.25 0 0 1
1.78125 0.25 0 0 1
1.796875 0.25 0 0 1
1.8125 0.25 0 0 1
1.828125 0.25 0 0 1
1.84375 0.25 0 0 1
1.859375 0.25 0 0 1
1.875 0.25 0 0 1
1.890625 0.25 0 0 1
1.90625 0.25 0 0 1
1.921875 0.25 0 0 1
1.9375 0.25 0 0 1
1.953125 0.25 0 0 1
1.96875 0.25 0 0 1
1.984375 0.25 0 0 1
0 0.265625 0 0 1
0.015625 0.265625 0 0 1
0.03125 0.265625 0 0 1
0.046875 0.265625 0 0 1
0.0625 0.265625 0 0 1
0.078125 0.265625 0 0 1
0.09375 0.265625 0 0 1
0.109375 0.265625 0 0 1
0.125 0.265625 0 0 1
0.140625 0.265625 0 0 1
0.15625 0.265625 0 0 1
0.171875 0.265625 0 0 1
0.1875 0.265625 0 0 1
0.203125 0.265625 0 0 1
0.21875 0.265625 0 0 1
0.234375 0.265625 0 0 1
0.25 0.265625 0 0 1
0.265625 0.265625 0 0 1
0.28125 0.265625 0 0 1
0.296875 0.265625 0 0 1
0.3125 0.265625 0 0 1
0.328125 0.265625 0.0963189687963902502 0.0963189687963902502 1
0.34375 0.265625 0.173289632912647151 0.173289632912647151 1
0.359375 0.265625 0.224260938975114427 0.224260938975114427 1
0.375 0.265625 0.264704286657772125 0.264704286657772125 1
0.390625 0.265625 0.298923851089202997 0.298923851089202997 1
0.40625 0.265625 0.328868205935143543 0.328868205935143543 1
0.421875 0.265625 0.355618958648157568 0.355618958648157568 1
0.4375 0.265625 0.379851430660725575 0.379851430660725575 1
0.453125 0.265625 0.402021260320893969 0.402021260320893969 1
0.46875 0.265625 0.422453307331117967 0.422453307331117967 1
0.484375 0.265625 0.44138896536954797 0.44138896536954797 1
0.5 0.265625 0.459013463174011926 0.459013463174011926 1
0.515625 0.265625 0.475472626709466828 0.475472626709466828 1
0.53125 0.265625 0.490883689762656505 0.490883689762656505 1
0.546875 0.265625 0.505342550899882115 0.505342550899882115 1
0.5625 0.265625 0.518928809544237923 0.518928809544237923 1
0.578125 0.265625 0.531709360224173588 0.531709360224173588 1
0.59375 0.265625 0.543741020040791057 0.543741020040791057 1
0.609375 0.265625 0.55507248963536282 0.55507248963536282 1
0.625 0.265625 0.565745843444739771 0.565745843444739771 1
0.640625 0.265625 0.575797680396508693 0.575797680396508693 1
0.65625 0.265625 0.585260025010251317 0.585260025010251317 1
0.671875 0.265625 0.594161041932235734 0.594161041932235734 1
0.6875 0.265625 0.602525608895588816 0.602525608895588816 1
0.703125 0.265625 0.610375780769519038 0.610375780769519038 1
0.71875 0.265625 0.617731168774087402 0.617731168774087402 1
0.734375 0.265625 0.624609252853333907 0.624609252853333907 1
0.75 0.265625 0.631025640822145961 0.631025640822145961 1
0.765625 0.265625 0.636994284707484648 0.636994284707484648 1
0.78125 0.265625 0.642527662342252781 0.642527662342252781 1
0.796875 0.265625 0.647636930501959585 0.647636930501959585 1
0.8125 0.265625 0.65233205453587817 0.65233205453587817 1
0.828125 0.265625 0.656621918420334238 0.656621918420334238 1
0.84375 0.265625 0.660514418370257816 0.660514418370257816 1
0.859375 0.265625 0.664016542527368081 0.664016542527368081 1
0.875 0.265625 0.667134438756537329 0.667134438756537329 1
0.890625 0.265625 0.669873472194563058 0.669873472194563058 1
0.90625 0.265625 0.672238273884342319 0.672238273884342319 1
0.921875 0.265625 0.674232781574731765 0.674232781574731765 1
0.9375 0.265625 0.675860273558817726 0.675860273558817726 1
0.953125 0.265625 0.677123396250639109 0.677123396250639109 1
0.96875 0.265625 0.67802418605459791 0.67802418605459791 1
0.984375 0.265625 0.678564085956514518 0.678564085956514518 1
1 0.265625 0.678743957155421018 0.678743957155421018 1
1.015625 0.265625 0.678564085956514518 0.678564085956514518 1
1.03125 0.265625 0.67802418605459791 0.67802418605459791 1
1.046875 0.265625 0.677123396250639109 0.677123396250639109 1
1.0625 0.265625 0.675860273558817726 0.675860273558817726 1
1.078125 0.265625 0.674232781574731765 0.674232781574731765 1
1.09375 0.265625 0.672238273884342319 0.672238273884342319 1
1.109375 0.265625 0.669873472194563058 0.669873472194563058 1
1.125 0.265625 0.667134438756537329 0.667134438756537329 1
1.140625 0.265625 0.664016542527368081 0.664016542527368081 1
1.15625 0.265625 0.660514418370257816 0.660514418370257816 1
1.171875 0.265625 0.656621918420334238 0.656621918420334238 1
1.1875 0.265625 0.65233205453587817 0.65233205453587817 1
1.203125 0.265625 0.647636930501959585 0.647636930501959585 1
1.21875 0.265625 0.642527662342252781 0.642527662342252781 1
1.234375 0.265625 0.636994284707484648 0.636994284707484648 1
1.25 0.265625 0.631025640822145961 0.631025640822145961 1
1.265625 0.265625 0.624609252853333907 0.624609252853333907 1
1.28125 0.265625 0.617731168774087402 0.617731168774087402 1
1.296875 0.265625 0.610375780769519038 0.610375780769519038 1
1.3125 0.265625 0.602525608895588816 0.602525608895588816 1
1.328125 0.265625 0.594161041932235734 0.594161041932235734 1
1.34375 0.265625 0.585260025010251317 0.585260025010251317 1
1.359375 0.265625 0.575797680396508693 0.575797680396508693 1
1.375 0.265625 0.565745843444739771 0.565745843444739771 1
1.390625 0.265625 0.55507248963536282 0.55507248963536282 1
1.40625 0.265625 0.543741020040791057 0.543741020040791057 1
1.421875 0.265625 0.531709360224173588 0.531709360224173588 1
1.4375 0.265625 0.518928809544237923 0.518928809544237923 1
1.453125 0.265625 0.505342550899882115 0.505342550899882115 1
1.46875 0.265625 0.490883689762656505 0.490883689762656505 1
1.484375 0.265625 0.475472626709466828 0.475472626709466828 1
1.5 0.265625 0.459013463174011926 0.459013463174011926 1
1.515625 0.265625 0.44138896536954797 0.44138896536954797 1
1.53125 0.265625 0.422453307331117967 0.422453307331117967 1
1.546875 0.265625 0.402021260320893969 0.402021260320893969 1
1.5625 0.265625 0.379851430660725575 0.379851430660725575 1
1.578125 0.265625 0.355618958648157568 0.355618958648157568 1
1.59375 0.265625 0.328868205935143543 0.328868205935143543 1
1.609375 0.265625 0.298923851089202997 0.298923851089202997 1
1.625 0.265625 0.264704286657772125 0.264704286657772125 1
1.640625 0.265625 0.224260938975114427 0.224260938975114427 1
1.65625 0.265625 0.173289632912647151 0.173289632912647151 1
1.671875 0.265625 0.0963189687963902502 0.0963189687963902502 1
1.6875 0.265625 0 0 1
1.703125 0.265625 0 0 1
1.71875 0.265625 0 0 1
1.734375 0.265625 0 0 1
1.75 0.265625 0 0 1
1.765625 0.265625 0 0 1
1.78125 0.265625 0 0 1
1.796875 0.265625 0 0 1
1.8125 0.265625 0 0 1
1.828125 0.265625 0 0 1
1.84375 0.265625 0 0 1
1.859375 0.265625 0 0 1
1.875 0.265625 0 0 1
1.890625 0.265625 0 0 1
1.90625 0.265625 0 0 1
1.921875 0.265625 0 0 1
1.9375 0.265625 0 0 1
1.953125 0.265625 0 0 1
1.96875 0.265625 0 0 1
1.984375 0.265625 0 0 1
0 0.28125 0 0 1
0.015625 0.28125 0 0 1
0.03125 0.28125 0 0 1
0.046875 0.28125 0 0 1
0.0625 0.28125 0 0 1
0.078125 0.28125 0 0 1
0.09375 0.28125 0 0 1
0.109375 0.28125 0 0 1
0.125 0.28125 0 0 1
0.140625 0.28125 0 0 1
0.15625 0.28125 0 0 1
0.171875 0.28125 0 0 1
0.1875 0.28125 0 0 1
0.203125 0.28125 0 0 1
0.21875 0.28125 0 0 1
0.234375 0.28125 0 0 1
0.25 0.28125 0 0 1
0.265625 0.28125 0 0 1
0.28125 0.28125 0 0 1
0.296875 0.28125 0 0 1
0.3125 0.28125 0.103644524698606244 0.103644524698606244 1
0.328125 0.28125 0.178836299097806212 0.178836299097806212 1
0.34375 0.28125 0.229639663385922954 0.229639663385922954 1
0.359375 0.28125 0.27018150727797785 0.27018150727797785 1
0.375 0.28125 0.304587323275280097 0.304587323275280097 1
0.390625 0.28125 0.334754457587946086 0.334754457587946086 1
0.40625 0.28125 0.361744903212194546 0.361744903212194546 1
0.421875 0.28125 0.386225221697133581 0.386225221697133581 1
0.4375 0.28125 0.408646775956938157 0.408646775956938157 1
0.453125 0.28125 0.429332239501065194 0.429332239501065194 1
0.46875 0.28125 0.448521877950228853 0.448521877950228853 1
0.484375 0.28125 0.466400361143728126 0.466400361143728126 1
0.5 0.28125 0.483113276054384588 0.483113276054384588 1
0.515625 0.28125 0.498777803109761497 0.498777803109761497 1
0.53125 0.28125 0.513489897661093209 0.513489897661093209 1
0.546875 0.28125 0.527329282208943928 0.527329282208943928 1
0.5625 0.28125 0.540363014555955701 0.540363014555955701 1
0.578125 0.28125 0.552648099494606027 0.552648099494606027 1
0.59375 0.28125 0.564233440164618405 0.564233440164618405 1
0.609375 0.28125 0.57516132247831131 0.57516132247831131 1
0.625 0.28125 0.585468562349849786 0.585468562349849786 1
0.640625 0.28125 0.595187404835653466 0.595187404835653466 1
0.65625 0.28125 0.604346237681678611 0.604346237681678611 1
0.671875 0.28125 0.612970163935407264 0.612970163935407264 1
0.6875 0.28125 0.62108146607349346 0.62108146607349346 1
0.703125 0.28125 0.628699985585334686 0.628699985585334686 1
0.71875 0.28125 0.63584343591799386 0.63584343591799386 1
0.734375 0.28125 0.642527662342252781 0.642527662342252781 1
0.75 0.28125 0.648766859125834205 0.648766859125834205 1
0.765625 0.28125 0.654573752051669122 0.654573752051669122 1
0.78125 0.28125 0.659959752560714819 0.659959752560714819 1
0.796875 0.28125 0.664935088467287883 0.664935088467287883 1
0.8125 0.28125 0.669508915175892172 0.669508915175892172 1
0.828125 0.28125 0.673689410540940559 0.673689410540940559 1
0.84375 0.28125 0.677483855896212517 0.677483855896212517 1
0.859375 0.28125 0.680898705296903883 0.680898705296903883 1
0.875 0.28125 0.683939644632477806 0.683939644632477806 1
0.890625 0.28125 0.68661164195999469 0.68661164195999469 1
0.90625 0.28125 0.688918990157768807 0.688918990157768807 1
0.921875 0.28125 0.690865342794817039 0.690865342794817039 1
0.9375 0.28125 0.69245374394251058 0.69245374394251058 1
0.953125 0.28125 0.693686652513222257 0.693686652513222257 1
0.96875 0.28125 0.694565961590402181 0.694565961590402181 1
0.984375 0.28125 0.695093013110475777 0.695093013110475777 1
1 0.28125 0.695268608165218405 0.695268608165218405 1
1.015625 0.28125 0.695093013110475777 0.695093013110475777 1
1.03125 0.28125 0.694565961590402181 0.694565961590402181 1
1.046875 0.28125 0.693686652513222257 0.693686652513222257 1
1.0625 0.28125 0.69245374394251058 0.69245374394251058 1
1.078125 0.28125 0.690865342794817039 0.690865342794817039 1
1.09375 0.28125 0.688918990157768807 0.688918990157768807 1
1.109375 0.28125 0.68661164195999469 0.68661164195999469 1
1.125 0.28125 0.683939644632477806 0.683939644632477806 1
1.140625 0.28125 0.680898705296903883 0.680898705296903883 1
1.15625 0.28125 0.677483855896212517 0.677483855896212517 1
1.171875 0.28125 0.673689410540940559 0.673689410540940559 1
1.1875 0.28125 0.669508915175892172 0.669508915175892172 1
1.203125 0.28125 0.664935088467287883 0.664935088467287883 1
1.21875 0.28125 0.659959752560714819 0.659959752560714819 1
1.234375 0.28125 0.654573752051669122 0.654573752051669122 1
1.25 0.28125 0.648766859125834205 0.648766859125834205 1
1.265625 0.28125 0.642527662342252781 0.642527662342252781 1
1.28125 0.28125 0.63584343591799386 0.63584343591799386 1
1.296875 0.28125 0.628699985585334686 0.628699985585334686 1
1.3125 0.28125 0.62108146607349346 0.62108146607349346 1
1.328125 0.28125 0.612970163935407264 0.612970163935407264 1
1.34375 0.28125 0.604346237681678611 0.604346237681678611 1
1.359375 0.28125 0.595187404835653466 0.595187404835653466 1
1.375 0.28125 0.585468562349849786 0.585468562349849786 1
1.390625 0.28125 0.57516132247831131 0.57516132247831131 1
1.40625 0.28125 0.564233440164618405 0.564233440164618405 1
1.421875 0.28125 0.552648099494606027 0.552648099494606027 1
1.4375 0.28125 0.540363014555955701 0.540363014555955701 1
1.453125 0.28125 0.527329282208943928 0.527329282208943928 1
1.46875 0.28125 0.513489897661093209 0.513489897661093209 1
1.484375 0.28125 0.498777803109761497 0.498777803109761497 1
1.5 0.28125 0.483113276054384588 0.483113276054384588 1
1.515625 0.28125 0.466400361143728126 0.466400361143728126 1
1.53125 0.28125 0.448521877950228853 0.448521877950228853 1
1.546875 0.28125 0.429332239501065194 0.429332239501065194 1
1.5625 0.28125 0.408646775956938157 0.408646775956938157 1
1.578125 0.28125 0.386225221697133581 0.386225221697133581 1
1.59375 0.28125 0.361744903212194546 0.361744903212194546 1
1.609375 0.28125 0.334754457587946086 0.334754457587946086 1
1.625 0.28125 0.304587323275280097 0.304587323275280097 1
1.640625 0.28125 0.27018150727797785 0.27018150727797785 1
1.65625 0.28125 0.229639663385922954 0.229639663385922954 1
1.671875 0.28125 0.178836299097806212 0.178836299097806212 1
1.6875 0.28125 0.103644524698606244 0.103644524698606244 1
1.703125 0.28125 0 0 1
1.71875 0.28125 0 0 1
1.734375 0.28125 0 0 1
1.75 0.28125 0 0 1
1.765625 0.28125 0 0 1
1.78125 0.28125 0 0 1
1.796875 0.28125 0 0 1
1.8125 0.28125 0 0 1
1.828125 0.28125 0 0 1
1.84375 0.28125 0 0 1
1.859375 0.28125 0 0 1
1.875 0.28125 0 0 1
1.890625 0.28125 0 0 1
1.90625 0.28125 0 0 1
1.921875 0.28125 0 0 1
1.9375 0.28125 0 0 1
1.953125 0.28125 0 0 1
1.96875 0.28125 0 0 1
1.984375 0.28125 0 0 1
0 0.296875 0 0 1
0.015625 0.296875 0 0 1
0.03125 0.296875 0 0 1
0.046875 0.296875 0 0 1
0.0625 0.296875 0 0 1
0.078125 0.296875 0 0 1
0.09375 0.296875 0 0 1
0.109375 0.296875 0 0 1
0.125 0.296875 0 0 1
0.140625 0.296875 0 0 1
0.15625 0.296875 0 0 1
0.171875 0.296875 0 0 1
0.1875 0.296875 0 0 1
0.203125 0.296875 0 0 1
0.21875 0.296875 0 0 1
0.234375 0.296875 0 0 1
0.25 0.296875 0 0 1
0.265625 0.296875 0 0 1
0.28125 0.296875 0 0 1
0.296875 0.296875 0.105973905986332315 0.105973905986332315 1
0.3125 0.296875 0.181546094353472659 0.181546094353472659 1
0.328125 0.296875 0.23280725665236468 0.23280725665236468 1
0.34375 0.296875 0.273772116686487987 0.273772116686487987 1
0.359375 0.296875 0.30856902590830465 0.30856902590830465 1
0.375 0.296875 0.339102100222042291 0.339102100222042291 1
0.390625 0.296875 0.366438731236205462 0.366438731236205462 1
0.40625 0.296875 0.391249500798403593 0.391249500798403593 1
0.421875 0.296875 0.413988790609117807 0.413988790609117807 1
0.4375 0.296875 0.434981590846095445 0.434981590846095445 1
0.453125 0.296875 0.45446998663278082 0.45446998663278082 1
0.46875 0.296875 0.472640108195442943 0.472640108195442943 1
0.484375 0.296875 0.48963873799976243 0.48963873799976243 1
0.5 0.296875 0.505584052730107425 0.505584052730107425 1
0.515625 0.296875 0.520572851529927605 0.520572851529927605 1
0.53125 0.296875 0.534685582258396019 0.534685582258396019 1
0.546875 0.296875 0.547989934898443165 0.547989934898443165 1
0.5625 0.296875 0.560543472332878046 0.560543472332878046 1
0.578125 0.296875 0.572395596375443794 0.572395596375443794 1
0.59375 0.296875 0.58358904365572184 0.58358904365572184 1
0.609375 0.296875 0.594161041932235734 0.594161041932235734 1
0.625 0.296875 0.604144216536912637 0.604144216536912637 1
0.640625 0.296875 0.613567309877245615 0.613567309877245615 1
0.65625 0.296875 0.622455758970065332 0.622455758970065332 1
0.671875 0.296875 0.6308321636933234 0.6308321636933234 1
0.6875 0.296875 0.638716669874052956 0.638716669874052956 1
0.703125 0.296875 0.646127285254229133 0.646127285254229133 1
0.71875 0.296875 0.653080142000198927 0.653080142000198927 1
0.734375 0.296875 0.65958971622516982 0.65958971622516982 1
0.75 0.296875 0.665669012629399814 0.665669012629399814 1
0.765625 0.296875 0.671329720591901102 0.671329720591901102 1
0.78125 0.296875 0.676582346706592674 0.676582346706592674 1
0.796875 0.296875 0.681436327729891378 0.681436327729891378 1
0.8125 0.296875 0.685900127113999059 0.685900127113999059 1
0.828125 0.296875 0.689981317681862993 0.689981317681862993 1
0.84375 0.296875 0.693686652513222257 0.693686652513222257 1
0.859375 0.296875 0.697022125724858221 0.697022125724858221 1
0.875 0.296875 0.699993024518816176 0.699993024518816176 1
0.890625 0.296875 0.702603973622409894 0.702603973622409894 1
0.90625 0.296875 0.704858973039997561 0.704858973039997561 1
0.921875 0.296875 0.706761429868665081 0.706761429868665081 1
0.9375 0.296875 0.708314184790196033 0.708314184790196033 1
0.953125 0.296875 0.709519533733920515 0.709519533733920515 1
0.96875 0.296875 0.710379245104331591 0.710379245104331591 1
0.984375 0.296875 0.71089457287983282 0.71089457287983282 1
1 0.296875 0.711066265811422071 0.711066265811422071 1
1.015625 0.296875 0.71089457287983282 0.71089457287983282 1
1.03125 0.296875 0.710379245104331591 0.710379245104331591 1
1.046875 0.296875 0.709519533733920515 0.709519533733920515 1
1.0625 0.296875 0.708314184790196033 0.708314184790196033 1
1.078125 0.296875 0.706761429868665081 0.706761429868665081 1
1.09375 0.296875 0.704858973039997561 0.704858973039997561 1
1.109375 0.296875 0.702603973622409894 0.702603973622409894 1
1.125 0.296875 0.699993024518816176 0.699993024518816176 1
1.140625 0.296875 0.697022125724858221 0.697022125724858221 1
1.15625 0.296875 0.693686652513222257 0.693686652513222257 1
1.171875 0.296875 0.689981317681862993 0.689981317681862993 1
1.1875 0.296875 0.685900127113999059 0.685900127113999059 1
1.203125 0.296875 0.681436327729891378 0.681436327729891378 1
1.21875 0.296875 0.676582346706592674 0.676582346706592674 1
1.234375 0.296875 0.671329720591901102 0.671329720591901102 1
1.25 0.296875 0.665669012629399814 0.665669012629399814 1
1.265625 0.296875 0.65958971622516982 0.65958971622516982 1
1.28125 0.296875 0.653080142000198927 0.653080142000198927 1
1.296875 0.296875 0.646127285254229133 0.646127285254229133 1
1.3125 0.296875 0.638716669874052956 0.638716669874052956 1
1.328125 0.296875 0.6308321636933234 0.6308321636933234 1
1.34375 0.296875 0.622455758970065332 0.622455758970065332 1
1.359375 0.296875 0.613567309877245615 0.613567309877245615 1
1.375 0.296875 0.604144216536912637 0.604144216536912637 1
1.390625 0.296875 0.594161041932235734 0.594161041932235734 1
1.40625 0.296875 0.58358904365572184 0.58358904365572184 1
1.421875 0.296875 0.572395596375443794 0.572395596375443794 1
1.4375 0.296875 0.560543472332878046 0.560543472332878046 1
1.453125 0.296875 0.547989934898443165 0.547989934898443165 1
1.46875 0.296875 0.534685582258396019 0.534685582258396019 1
1.484375 0.296875 0.520572851529927605 0.520572851529927605 1
1.5 0.296875 0.505584052730107425 0.505584052730107425 1
1.515625 0.296875 0.48963873799976243 0.48963873799976243 1
1.53125 0.296875 0.472640108195442943 0.472640108195442943 1
1.546875 0.296875 0.45446998663278082 0.45446998663278082 1
1.5625 0.296875 0.434981590846095445 0.434981590846095445 1
1.578125 0.296875 0.413988790609117807 0.413988790609117807 1
1.59375 0.296875 0.391249500798403593 0.391249500798403593 1
1.609375 0.296875 0.366438731236205462 0.366438731236205462 1
1.625 0.296875 0.339102100222042291 0.339102100222042291 1
1.640625 0.296875 0.30856902590830465 0.30856902590830465 1
1.65625 0.296875 0.273772116686487987 0.273772116686487987 1
1.671875 0.296875 0.23280725665236468 0.23280725665236468 1
1.6875 0.296875 0.181546094353472659 0.181546094353472659 1
1.703125 0.296875 0.105973905986332315 0.105973905986332315 1
1.71875 0.296875 0 0 1
1.734375 0.296875 0 0 1
1.75 0.296875 0 0 1
1.765625 0.296875 0 0 1
1.78125 0.296875 0 0 1
1.796875 0.296875 0 0 1
1.8125 0.296875 0 0 1
1.828125 0.296875 0 0 1
1.84375 0.296875 0 0 1
1.859375 0.296875 0 0 1
1.875 0.296875 0 0 1
1.890625 0.296875 0 0 1
1.90625 0.296875 0 0 1
1.921875 0.296875 0 0 1
1.9375 0.296875 0 0 1
1.953125 0.296875 0 0 1
1.96875 0.296875 0 0 1
1.984375 0.296875 0 0 1
0 0.3125 0 0 1
0.015625 0.3125 0 0 1
0.03125 0.3125 0 0 1
0.046875 0.3125 0 0 1
0.0625 0.3125 0 0 1
0.078125 0.3125 0 0 1
0.09375 0.3125 0 0 1
0.109375 0.3125 0 0 1
0.125 0.3125 0 0 1
0.140625 0.3125 0 0 1
0.15625 0.3125 0 0 1
0.171875 0.3125 0 0 1
0.1875 0.3125 0 0 1
0.203125 0.3125 0 0 1
0.21875 0.3125 0 0 1
0.234375 0.3125 0 0 1
0.25 0.3125 0 0 1
0.265625 0.3125 0 0 1
0.28125 0.3125 0.103644524698606244 0.103644524698606244 1
0.296875 0.3125 0.181546094353472659 0.181546094353472659 1
0.3125 0.3125 0.233853586673371333 0.233853586673371333 1
0.328125 0.3125 0.275549876383568704 0.275549876383568704 1
0.34375 0.3125 0.310933574095818732 0.310933574095818732 1
0.359375 0.3125 0.341969822316238903 0.341969822316238903 1
0.375 0.3125 0.369754986443726008 0.369754986443726008 1
0.390625 0.3125 0.39497577061764183 0.39497577061764183 1
0.40625 0.3125 0.418096505008114128 0.418096505008114128 1
0.421875 0.3125 0.43944878470078852 0.43944878470078852 1
0.4375 0.3125 0.459279326771845908 0.459279326771845908 1
0.453125 0.3125 0.477777651606895504 0.477777651606895504 1
0.46875 0.3125 0.495093109929839348 0.495093109929839348 1
0.484375 0.3125 0.511345880373549111 0.511345880373549111 1
0.5 0.3125 0.52663436082352244 0.52663436082352244 1
0.515625 0.3125 0.541040302911899529 0.541040302911899529 1
0.53125 0.3125 0.55463247966558904 0.55463247966558904 1
0.546875 0.3125 0.567469368666714935 0.567469368666714935 1
0.5625 0.3125 0.579601155968481496 0.579601155968481496 1
0.578125 0.3125 0.59107125998055432 0.59107125998055432 1
0.59375 0.3125 0.601917508883069496 0.601917508883069496 1
0.609375 0.3125 0.612173063254991656 0.612173063254991656 1
0.625 0.3125 0.621867148191637464 0.621867148191637464 1
0.640625 0.3125 0.631025640822145961 0.631025640822145961 1
0.65625 0.3125 0.639671546576835004 0.639671546576835004 1
0.671875 0.3125 0.64782538880087126 0.64782538880087126 1
0.6875 0.3125 0.655505530106344714 0.655505530106344714 1
0.703125 0.3125 0.662728439389015489 0.662728439389015489 1
0.71875 0.3125 0.669508915175892172 0.669508915175892172 1
0.734375 0.3125 0.675860273558817726 0.675860273558817726 1
0.75 0.3125 0.681794507164732111 0.681794507164732111 1
0.765625 0.3125 0.687322420247586607 0.687322420247586607 1
0.78125 0.3125 0.69245374394251058 0.69245374394251058 1
0.796875 0.3125 0.697197234916346997 0.697197234916346997 1
0.8125 0.3125 0.701560760020114027 0.701560760020114027 1
0.828125 0.3125 0.705551369054727262 0.705551369054727262 1
0.84375 0.3125 0.709175357369388526 0.709175357369388526 1
0.859375 0.3125 0.712438319698624811 0.712438319698624811 1
0.875 0.3125 0.715345196391224847 0.715345196391224847 1
0.890625 0.3125 0.717900312978758892 0.717900312978758892 1
0.90625 0.3125 0.720107413862682066 0.720107413862682066 1
0.921875 0.3125 0.721969690759245109 0.721969690759245109 1
0.9375 0.3125 0.723489806424389092 0.723489806424389092 1
0.953125 0.3125 0.724669914081576882 0.724669914081576882 1
0.96875 0.3125 0.725511672890243764 0.725511672890243764 1
0.984375 0.3125 0.726016259718058943 0.726016259718058943 1
1 0.3125 0.726184377413890636 0.726184377413890636 1
1.015625 0.3125 0.726016259718058943 0.726016259718058943 1
1.03125 0.3125 0.725511672890243764 0.725511672890243764 1
1.046875 0.3125 0.724669914081576882 0.724669914081576882 1
1.0625 0.3125 0.723489806424389092 0.723489806424389092 1
1.078125 0.3125 0.721969690759245109 0.721969690759245109 1
1.09375 0.3125 0.720107413862682066 0.720107413862682066 1
1.109375 0.3125 0.717900312978758892 0.717900312978758892 1
1.125 0.3125 0.715345196391224847 0.715345196391224847 1
1.140625 0.3125 0.712438319698624811 0.712438319698624811 1
1.15625 0.3125 0.709175357369388526 0.709175357369388526 1
1.171875 0.3125 0.705551369054727262 0.705551369054727262 1
1.1875 0.3125 0.701560760020114027 0.701560760020114027 1
1.203125 0.3125 0.697197234916346997 0.697197234916346997 1
1.21875 0.3125 0.69245374394251058 0.69245374394251058 1
1.234375 0.3125 0.687322420247586607 0.687322420247586607 1
1.25 0.3125 0.681794507164732111 0.681794507164732111 1
1.265625 0.3125 0.675860273558817726 0.675860273558817726 1
1.28125 0.3125 0.669508915175892172 0.669508915175892172 1
1.296875 0.3125 0.662728439389015489 0.662728439389015489 1
1.3125 0.3125 0.655505530106344714 0.655505530106344714 1
