ply
format ascii 1.0
element vertex 792
property double x
property double y
property double z
property double depth
property double albedo
end_header
0.8046875 0.6015625 5.58499999999999996 5.58499999999999996 1
0.8125 0.6015625 6.09700000000000042 6.09700000000000042 1
0.8203125 0.6015625 5.69200000000000017 5.69200000000000017 1
0.828125 0.6015625 5.54999999999999982 5.54999999999999982 1
0.8359375 0.6015625 5.63900000000000023 5.63900000000000023 1
0.84375 0.6015625 5.58499999999999996 5.58499999999999996 1
0.8515625 0.6015625 5.74199999999999999 5.74199999999999999 1
0.859375 0.6015625 5.22599999999999998 5.22599999999999998 1
0.8671875 0.6015625 5.43100000000000005 5.43100000000000005 1
0.875 0.6015625 5.49600000000000044 5.49600000000000044 1
0.8828125 0.6015625 5.39100000000000001 5.39100000000000001 1
0.890625 0.6015625 5.53500000000000014 5.53500000000000014 1
0.8984375 0.6015625 5.24899999999999967 5.24899999999999967 1
0.90625 0.6015625 5.4610000000000003 5.4610000000000003 1
0.9140625 0.6015625 5.49500000000000011 5.49500000000000011 1
0.921875 0.6015625 5.60299999999999976 5.60299999999999976 1
0.9296875 0.6015625 5.39100000000000001 5.39100000000000001 1
0.9375 0.6015625 5.58499999999999996 5.58499999999999996 1
0.9453125 0.6015625 5.39100000000000001 5.39100000000000001 1
0.953125 0.6015625 5.4610000000000003 5.4610000000000003 1
0.9609375 0.6015625 5.22599999999999998 5.22599999999999998 1
0.96875 0.6015625 5.32200000000000006 5.32200000000000006 1
0.9765625 0.6015625 4.90599999999999969 4.90599999999999969 1
0.984375 0.6015625 4.84999999999999964 4.84999999999999964 1
0.9921875 0.6015625 4.8490000000000002 4.8490000000000002 1
0 0.609375 5.03599999999999959 5.03599999999999959 1
0.0078125 0.609375 5 5 1
0.015625 0.609375 5 5 1
0.0234375 0.609375 5.14700000000000024 5.14700000000000024 1
0.03125 0.609375 5.22900000000000009 5.22900000000000009 1
0.0390625 0.609375 5.30400000000000027 5.30400000000000027 1
0.046875 0.609375 5.36300000000000043 5.36300000000000043 1
0.0546875 0.609375 5.43299999999999983 5.43299999999999983 1
0.0625 0.609375 5.22599999999999998 5.22599999999999998 1
0.0703125 0.609375 5.37100000000000044 5.37100000000000044 1
0.078125 0.609375 5.63100000000000023 5.63100000000000023 1
0.0859375 0.609375 5.66099999999999959 5.66099999999999959 1
0.09375 0.609375 5.60400000000000009 5.60400000000000009 1
0.1015625 0.609375 5.58499999999999996 5.58499999999999996 1
0.109375 0.609375 5.39100000000000001 5.39100000000000001 1
0.1171875 0.609375 5.39100000000000001 5.39100000000000001 1
0.125 0.609375 5.59100000000000019 5.59100000000000019 1
0.1328125 0.609375 5.67400000000000038 5.67400000000000038 1
0.140625 0.609375 5.71300000000000008 5.71300000000000008 1
0.1484375 0.609375 5.67400000000000038 5.67400000000000038 1
0.15625 0.609375 5.58499999999999996 5.58499999999999996 1
0.1640625 0.609375 5.46499999999999986 5.46499999999999986 1
0.171875 0.609375 5.53399999999999981 5.53399999999999981 1
0.1796875 0.609375 5.88600000000000012 5.88600000000000012 1
0.1875 0.609375 5.69700000000000006 5.69700000000000006 1
0.1953125 0.609375 5.67400000000000038 5.67400000000000038 1
0.203125 0.609375 5.58499999999999996 5.58499999999999996 1
0.2109375 0.609375 5.74600000000000044 5.74600000000000044 1
0.21875 0.609375 5.74199999999999999 5.74199999999999999 1
0.2265625 0.609375 6.08499999999999996 6.08499999999999996 1
0.234375 0.609375 5.39100000000000001 5.39100000000000001 1
0.2421875 0.609375 5.58499999999999996 5.58499999999999996 1
0.25 0.609375 5.58499999999999996 5.58499999999999996 1
0.2578125 0.609375 5.88999999999999968 5.88999999999999968 1
0.265625 0.609375 5.90399999999999991 5.90399999999999991 1
0.2734375 0.609375 6.04000000000000004 6.04000000000000004 1
0.28125 0.609375 5.58499999999999996 5.58499999999999996 1
0.2890625 0.609375 5.99500000000000011 5.99500000000000011 1
0.296875 0.609375 5.86099999999999977 5.86099999999999977 1
0.3046875 0.609375 6.08800000000000008 6.08800000000000008 1
0.3125 0.609375 5.7759999999999998 5.7759999999999998 1
0.3203125 0.609375 6.11800000000000033 6.11800000000000033 1
0.328125 0.609375 5.81899999999999995 5.81899999999999995 1
0.3359375 0.609375 5.86800000000000033 5.86800000000000033 1
0.34375 0.609375 5.67400000000000038 5.67400000000000038 1
0.3515625 0.609375 5.95300000000000029 5.95300000000000029 1
0.359375 0.609375 5.82599999999999962 5.82599999999999962 1
0.3671875 0.609375 5.88600000000000012 5.88600000000000012 1
0.375 0.609375 5.74600000000000044 5.74600000000000044 1
0.3828125 0.609375 5.91199999999999992 5.91199999999999992 1
0.390625 0.609375 5.69200000000000017 5.69200000000000017 1
0.3984375 0.609375 5.81400000000000006 5.81400000000000006 1
0.40625 0.609375 5.67600000000000016 5.67600000000000016 1
0.4140625 0.609375 5.58499999999999996 5.58499999999999996 1
0.421875 0.609375 5.84299999999999997 5.84299999999999997 1
0.4296875 0.609375 6.02799999999999958 6.02799999999999958 1
0.4375 0.609375 6.00499999999999989 6.00499999999999989 1
0.4453125 0.609375 5.98000000000000043 5.98000000000000043 1
0.453125 0.609375 6.20399999999999974 6.20399999999999974 1
0.4609375 0.609375 5.74199999999999999 5.74199999999999999 1
0.46875 0.609375 6.22299999999999986 6.22299999999999986 1
0.4765625 0.609375 5.81400000000000006 5.81400000000000006 1
0.484375 0.609375 6.07800000000000029 6.07800000000000029 1
0.4921875 0.609375 5.60400000000000009 5.60400000000000009 1
0.5 0.609375 6.07899999999999974 6.07899999999999974 1
0.5078125 0.609375 6.15200000000000014 6.15200000000000014 1
0.515625 0.609375 5.78200000000000003 5.78200000000000003 1
0.5234375 0.609375 5.74199999999999999 5.74199999999999999 1
0.53125 0.609375 6.00600000000000023 6.00600000000000023 1
0.5390625 0.609375 5.84299999999999997 5.84299999999999997 1
0.546875 0.609375 5.84299999999999997 5.84299999999999997 1
0.5546875 0.609375 6.05799999999999983 6.05799999999999983 1
0.5625 0.609375 6.02200000000000024 6.02200000000000024 1
0.5703125 0.609375 5.9740000000000002 5.9740000000000002 1
0.578125 0.609375 6.09299999999999997 6.09299999999999997 1
0.5859375 0.609375 5.67400000000000038 5.67400000000000038 1
0.59375 0.609375 6.15200000000000014 6.15200000000000014 1
0.6015625 0.609375 5.83399999999999963 5.83399999999999963 1
0.609375 0.609375 5.81400000000000006 5.81400000000000006 1
0.6171875 0.609375 5.76900000000000013 5.76900000000000013 1
0.625 0.609375 6.0519999999999996 6.0519999999999996 1
0.6328125 0.609375 5.88600000000000012 5.88600000000000012 1
0.640625 0.609375 5.88600000000000012 5.88600000000000012 1
0.6484375 0.609375 5.83199999999999985 5.83199999999999985 1
0.65625 0.609375 5.74899999999999967 5.74899999999999967 1
0.6640625 0.609375 6.02500000000000036 6.02500000000000036 1
0.671875 0.609375 5.81400000000000006 5.81400000000000006 1
0.6796875 0.609375 5.99500000000000011 5.99500000000000011 1
0.6875 0.609375 5.90200000000000014 5.90200000000000014 1
0.6953125 0.609375 5.64599999999999991 5.64599999999999991 1
0.703125 0.609375 5.83199999999999985 5.83199999999999985 1
0.7109375 0.609375 5.58499999999999996 5.58499999999999996 1
0.71875 0.609375 5.87100000000000044 5.87100000000000044 1
0.7265625 0.609375 5.93400000000000016 5.93400000000000016 1
0.734375 0.609375 5.77700000000000014 5.77700000000000014 1
0.7421875 0.609375 5.54800000000000004 5.54800000000000004 1
0.75 0.609375 5.58499999999999996 5.58499999999999996 1
0.7578125 0.609375 6.1379999999999999 6.1379999999999999 1
0.765625 0.609375 5.58499999999999996 5.58499999999999996 1
0.7734375 0.609375 5.92799999999999994 5.92799999999999994 1
0.78125 0.609375 5.72599999999999998 5.72599999999999998 1
0.7890625 0.609375 5.67400000000000038 5.67400000000000038 1
0.796875 0.609375 5.81400000000000006 5.81400000000000006 1
0.8046875 0.609375 5.74199999999999999 5.74199999999999999 1
0.8125 0.609375 5.58499999999999996 5.58499999999999996 1
0.8203125 0.609375 5.62800000000000011 5.62800000000000011 1
0.828125 0.609375 5.82500000000000018 5.82500000000000018 1
0.8359375 0.609375 5.58499999999999996 5.58499999999999996 1
0.84375 0.609375 5.70999999999999996 5.70999999999999996 1
0.8515625 0.609375 5.43100000000000005 5.43100000000000005 1
0.859375 0.609375 5.76199999999999957 5.76199999999999957 1
0.8671875 0.609375 5.57099999999999973 5.57099999999999973 1
0.875 0.609375 5.60099999999999998 5.60099999999999998 1
0.8828125 0.609375 5.55999999999999961 5.55999999999999961 1
0.890625 0.609375 5.61699999999999999 5.61699999999999999 1
0.8984375 0.609375 5.68400000000000016 5.68400000000000016 1
0.90625 0.609375 5.70699999999999985 5.70699999999999985 1
0.9140625 0.609375 5.24500000000000011 5.24500000000000011 1
0.921875 0.609375 5.50699999999999967 5.50699999999999967 1
0.9296875 0.609375 5.47900000000000009 5.47900000000000009 1
0.9375 0.609375 5.20800000000000018 5.20800000000000018 1
0.9453125 0.609375 5.4610000000000003 5.4610000000000003 1
0.953125 0.609375 5.18499999999999961 5.18499999999999961 1
0.9609375 0.609375 5.22599999999999998 5.22599999999999998 1
0.96875 0.609375 5 5 1
0.9765625 0.609375 5.21600000000000019 5.21600000000000019 1
0.984375 0.609375 5 5 1
0.9921875 0.609375 5.06400000000000006 5.06400000000000006 1
0 0.6171875 5 5 1
0.0078125 0.6171875 4.51100000000000012 4.51100000000000012 1
0.015625 0.6171875 4.88199999999999967 4.88199999999999967 1
0.0234375 0.6171875 5.04900000000000038 5.04900000000000038 1
0.03125 0.6171875 5.14599999999999991 5.14599999999999991 1
0.0390625 0.6171875 5.14700000000000024 5.14700000000000024 1
0.046875 0.6171875 5.04000000000000004 5.04000000000000004 1
0.0546875 0.6171875 5.49800000000000022 5.49800000000000022 1
0.0625 0.6171875 5.30400000000000027 5.30400000000000027 1
0.0703125 0.6171875 5.4610000000000003 5.4610000000000003 1
0.078125 0.6171875 5.48299999999999965 5.48299999999999965 1
0.0859375 0.6171875 5.4610000000000003 5.4610000000000003 1
0.09375 0.6171875 5.66899999999999959 5.66899999999999959 1
0.1015625 0.6171875 5.22599999999999998 5.22599999999999998 1
0.109375 0.6171875 5.28800000000000026 5.28800000000000026 1
0.1171875 0.6171875 5.58499999999999996 5.58499999999999996 1
0.125 0.6171875 5.39100000000000001 5.39100000000000001 1
0.1328125 0.6171875 5.58499999999999996 5.58499999999999996 1
0.140625 0.6171875 5.58499999999999996 5.58499999999999996 1
0.1484375 0.6171875 5.82599999999999962 5.82599999999999962 1
0.15625 0.6171875 5.58499999999999996 5.58499999999999996 1
0.1640625 0.6171875 5.67400000000000038 5.67400000000000038 1
0.171875 0.6171875 5.30400000000000027 5.30400000000000027 1
0.1796875 0.6171875 5.53000000000000025 5.53000000000000025 1
0.1875 0.6171875 5.47799999999999976 5.47799999999999976 1
0.1953125 0.6171875 5.39100000000000001 5.39100000000000001 1
0.203125 0.6171875 5.60400000000000009 5.60400000000000009 1
0.2109375 0.6171875 5.83100000000000041 5.83100000000000041 1
0.21875 0.6171875 5.84700000000000042 5.84700000000000042 1
0.2265625 0.6171875 5.58499999999999996 5.58499999999999996 1
0.234375 0.6171875 5.58499999999999996 5.58499999999999996 1
0.2421875 0.6171875 5.5389999999999997 5.5389999999999997 1
0.25 0.6171875 5.72200000000000042 5.72200000000000042 1
0.2578125 0.6171875 5.76600000000000001 5.76600000000000001 1
0.265625 0.6171875 5.63900000000000023 5.63900000000000023 1
0.2734375 0.6171875 5.99800000000000022 5.99800000000000022 1
0.28125 0.6171875 5.67400000000000038 5.67400000000000038 1
0.2890625 0.6171875 6.00800000000000001 6.00800000000000001 1
0.296875 0.6171875 5.88100000000000023 5.88100000000000023 1
0.3046875 0.6171875 5.58499999999999996 5.58499999999999996 1
0.3125 0.6171875 5.76600000000000001 5.76600000000000001 1
0.3203125 0.6171875 5.90200000000000014 5.90200000000000014 1
0.328125 0.6171875 5.84299999999999997 5.84299999999999997 1
0.3359375 0.6171875 5.99500000000000011 5.99500000000000011 1
0.34375 0.6171875 5.74199999999999999 5.74199999999999999 1
0.3515625 0.6171875 5.91899999999999959 5.91899999999999959 1
0.359375 0.6171875 5.64200000000000035 5.64200000000000035 1
0.3671875 0.6171875 6.00600000000000023 6.00600000000000023 1
0.375 0.6171875 5.75199999999999978 5.75199999999999978 1
0.3828125 0.6171875 5.94299999999999962 5.94299999999999962 1
0.390625 0.6171875 5.4610000000000003 5.4610000000000003 1
0.3984375 0.6171875 5.96699999999999964 5.96699999999999964 1
0.40625 0.6171875 5.83199999999999985 5.83199999999999985 1
0.4140625 0.6171875 5.83199999999999985 5.83199999999999985 1
0.421875 0.6171875 5.98599999999999977 5.98599999999999977 1
0.4296875 0.6171875 5.69200000000000017 5.69200000000000017 1
0.4375 0.6171875 5.63900000000000023 5.63900000000000023 1
0.4453125 0.6171875 5.80100000000000016 5.80100000000000016 1
0.453125 0.6171875 5.90500000000000025 5.90500000000000025 1
0.4609375 0.6171875 5.75199999999999978 5.75199999999999978 1
0.46875 0.6171875 6.14799999999999969 6.14799999999999969 1
0.4765625 0.6171875 6.22900000000000009 6.22900000000000009 1
0.484375 0.6171875 5.9740000000000002 5.9740000000000002 1
0.4921875 0.6171875 5.85099999999999998 5.85099999999999998 1
0.5 0.6171875 6.25 6.25 1
0.5078125 0.6171875 5.99000000000000021 5.99000000000000021 1
0.515625 0.6171875 5.76600000000000001 5.76600000000000001 1
0.5234375 0.6171875 6.26999999999999957 6.26999999999999957 1
0.53125 0.6171875 5.76600000000000001 5.76600000000000001 1
0.5390625 0.6171875 5.73599999999999977 5.73599999999999977 1
0.546875 0.6171875 5.62800000000000011 5.62800000000000011 1
0.5546875 0.6171875 5.99399999999999977 5.99399999999999977 1
0.5625 0.6171875 5.76600000000000001 5.76600000000000001 1
0.5703125 0.6171875 6.14100000000000001 6.14100000000000001 1
0.578125 0.6171875 5.74199999999999999 5.74199999999999999 1
0.5859375 0.6171875 6.14100000000000001 6.14100000000000001 1
0.59375 0.6171875 5.88600000000000012 5.88600000000000012 1
0.6015625 0.6171875 5.87899999999999956 5.87899999999999956 1
0.609375 0.6171875 5.97799999999999976 5.97799999999999976 1
0.6171875 0.6171875 5.55999999999999961 5.55999999999999961 1
0.625 0.6171875 5.74199999999999999 5.74199999999999999 1
0.6328125 0.6171875 5.88600000000000012 5.88600000000000012 1
0.640625 0.6171875 5.88600000000000012 5.88600000000000012 1
0.6484375 0.6171875 5.6639999999999997 5.6639999999999997 1
0.65625 0.6171875 5.84299999999999997 5.84299999999999997 1
0.6640625 0.6171875 5.74199999999999999 5.74199999999999999 1
0.671875 0.6171875 5.76400000000000023 5.76400000000000023 1
0.6796875 0.6171875 5.67400000000000038 5.67400000000000038 1
0.6875 0.6171875 5.74199999999999999 5.74199999999999999 1
0.6953125 0.6171875 5.69700000000000006 5.69700000000000006 1
0.703125 0.6171875 5.6639999999999997 5.6639999999999997 1
0.7109375 0.6171875 5.82800000000000029 5.82800000000000029 1
0.71875 0.6171875 6.05600000000000005 6.05600000000000005 1
0.7265625 0.6171875 5.58499999999999996 5.58499999999999996 1
0.734375 0.6171875 5.95000000000000018 5.95000000000000018 1
0.7421875 0.6171875 5.95800000000000018 5.95800000000000018 1
0.75 0.6171875 5.67400000000000038 5.67400000000000038 1
0.7578125 0.6171875 6.06400000000000006 6.06400000000000006 1
0.765625 0.6171875 5.80400000000000027 5.80400000000000027 1
0.7734375 0.6171875 5.76900000000000013 5.76900000000000013 1
0.78125 0.6171875 5.58499999999999996 5.58499999999999996 1
0.7890625 0.6171875 5.64400000000000013 5.64400000000000013 1
0.796875 0.6171875 5.68700000000000028 5.68700000000000028 1
0.8046875 0.6171875 5.78000000000000025 5.78000000000000025 1
0.8125 0.6171875 5.62800000000000011 5.62800000000000011 1
0.8203125 0.6171875 5.58499999999999996 5.58499999999999996 1
0.828125 0.6171875 5.62800000000000011 5.62800000000000011 1
0.8359375 0.6171875 5.63900000000000023 5.63900000000000023 1
0.84375 0.6171875 5.58499999999999996 5.58499999999999996 1
0.8515625 0.6171875 5.67100000000000026 5.67100000000000026 1
0.859375 0.6171875 5.84299999999999997 5.84299999999999997 1
0.8671875 0.6171875 5.51400000000000023 5.51400000000000023 1
0.875 0.6171875 5.39100000000000001 5.39100000000000001 1
0.8828125 0.6171875 5.70699999999999985 5.70699999999999985 1
0.890625 0.6171875 5.54000000000000004 5.54000000000000004 1
0.8984375 0.6171875 5.53000000000000025 5.53000000000000025 1
0.90625 0.6171875 5.30400000000000027 5.30400000000000027 1
0.9140625 0.6171875 5.62000000000000011 5.62000000000000011 1
0.921875 0.6171875 5.32699999999999996 5.32699999999999996 1
0.9296875 0.6171875 5.27700000000000014 5.27700000000000014 1
0.9375 0.6171875 5.22599999999999998 5.22599999999999998 1
0.9453125 0.6171875 4.84999999999999964 4.84999999999999964 1
0.953125 0.6171875 5.14700000000000024 5.14700000000000024 1
0.9609375 0.6171875 5.34400000000000031 5.34400000000000031 1
0.96875 0.6171875 5.24899999999999967 5.24899999999999967 1
0.9765625 0.6171875 5.43299999999999983 5.43299999999999983 1
0.984375 0.6171875 5 5 1
0.9921875 0.6171875 5.05100000000000016 5.05100000000000016 1
0 0.625 5.04000000000000004 5.04000000000000004 1
0.0078125 0.625 5.32000000000000028 5.32000000000000028 1
0.015625 0.625 4.68499999999999961 4.68499999999999961 1
0.0234375 0.625 5.38699999999999957 5.38699999999999957 1
0.03125 0.625 5.11599999999999966 5.11599999999999966 1
0.0390625 0.625 5.7110000000000003 5.7110000000000003 1
0.046875 0.625 5.04000000000000004 5.04000000000000004 1
0.0546875 0.625 5.34999999999999964 5.34999999999999964 1
0.0625 0.625 5.14700000000000024 5.14700000000000024 1
0.0703125 0.625 5.43100000000000005 5.43100000000000005 1
0.078125 0.625 5.58499999999999996 5.58499999999999996 1
0.0859375 0.625 5.36000000000000032 5.36000000000000032 1
0.09375 0.625 5.57800000000000029 5.57800000000000029 1
0.1015625 0.625 5.4610000000000003 5.4610000000000003 1
0.109375 0.625 5.61599999999999966 5.61599999999999966 1
0.1171875 0.625 5.75600000000000023 5.75600000000000023 1
0.125 0.625 5.70500000000000007 5.70500000000000007 1
0.1328125 0.625 5.54699999999999971 5.54699999999999971 1
0.140625 0.625 5.66300000000000026 5.66300000000000026 1
0.1484375 0.625 5.89799999999999969 5.89799999999999969 1
0.15625 0.625 5.58499999999999996 5.58499999999999996 1
0.1640625 0.625 5.49699999999999989 5.49699999999999989 1
0.171875 0.625 5.58499999999999996 5.58499999999999996 1
0.1796875 0.625 5.74500000000000011 5.74500000000000011 1
0.1875 0.625 5.52500000000000036 5.52500000000000036 1
0.1953125 0.625 5.71400000000000041 5.71400000000000041 1
0.203125 0.625 5.43100000000000005 5.43100000000000005 1
0.2109375 0.625 5.76600000000000001 5.76600000000000001 1
0.21875 0.625 5.74800000000000022 5.74800000000000022 1
0.2265625 0.625 5.94299999999999962 5.94299999999999962 1
0.234375 0.625 5.74199999999999999 5.74199999999999999 1
0.2421875 0.625 5.67400000000000038 5.67400000000000038 1
0.25 0.625 5.84299999999999997 5.84299999999999997 1
0.2578125 0.625 6.02400000000000002 6.02400000000000002 1
0.265625 0.625 5.87000000000000011 5.87000000000000011 1
0.2734375 0.625 5.67400000000000038 5.67400000000000038 1
0.28125 0.625 5.81400000000000006 5.81400000000000006 1
0.2890625 0.625 5.79699999999999971 5.79699999999999971 1
0.296875 0.625 5.63900000000000023 5.63900000000000023 1
0.3046875 0.625 6.15200000000000014 6.15200000000000014 1
0.3125 0.625 5.84299999999999997 5.84299999999999997 1
0.3203125 0.625 5.84299999999999997 5.84299999999999997 1
0.328125 0.625 5.84299999999999997 5.84299999999999997 1
0.3359375 0.625 5.84600000000000009 5.84600000000000009 1
0.34375 0.625 5.93700000000000028 5.93700000000000028 1
0.3515625 0.625 5.8490000000000002 5.8490000000000002 1
0.359375 0.625 5.88600000000000012 5.88600000000000012 1
0.3671875 0.625 5.84299999999999997 5.84299999999999997 1
0.375 0.625 5.81400000000000006 5.81400000000000006 1
0.3828125 0.625 6.00499999999999989 6.00499999999999989 1
0.390625 0.625 5.70999999999999996 5.70999999999999996 1
0.3984375 0.625 5.67400000000000038 5.67400000000000038 1
0.40625 0.625 5.98399999999999999 5.98399999999999999 1
0.4140625 0.625 6.04699999999999971 6.04699999999999971 1
0.421875 0.625 5.94899999999999984 5.94899999999999984 1
0.4296875 0.625 5.66199999999999992 5.66199999999999992 1
0.4375 0.625 5.96400000000000041 5.96400000000000041 1
0.4453125 0.625 5.91899999999999959 5.91899999999999959 1
0.453125 0.625 5.88900000000000023 5.88900000000000023 1
0.4609375 0.625 6.20000000000000018 6.20000000000000018 1
0.46875 0.625 5.82399999999999984 5.82399999999999984 1
0.4765625 0.625 5.74199999999999999 5.74199999999999999 1
0.484375 0.625 5.97799999999999976 5.97799999999999976 1
0.4921875 0.625 5.85400000000000009 5.85400000000000009 1
0.5 0.625 5.91899999999999959 5.91899999999999959 1
0.5078125 0.625 5.67400000000000038 5.67400000000000038 1
0.515625 0.625 5.84299999999999997 5.84299999999999997 1
0.5234375 0.625 5.88600000000000012 5.88600000000000012 1
0.53125 0.625 5.94299999999999962 5.94299999999999962 1
0.5390625 0.625 5.95500000000000007 5.95500000000000007 1
0.546875 0.625 5.99899999999999967 5.99899999999999967 1
0.5546875 0.625 5.84100000000000019 5.84100000000000019 1
0.5625 0.625 5.76600000000000001 5.76600000000000001 1
0.5703125 0.625 6.11300000000000043 6.11300000000000043 1
0.578125 0.625 5.67900000000000027 5.67900000000000027 1
0.5859375 0.625 5.69200000000000017 5.69200000000000017 1
0.59375 0.625 5.91899999999999959 5.91899999999999959 1
0.6015625 0.625 6.15200000000000014 6.15200000000000014 1
0.609375 0.625 6.06899999999999995 6.06899999999999995 1
0.6171875 0.625 5.88600000000000012 5.88600000000000012 1
0.625 0.625 5.6120000000000001 5.6120000000000001 1
0.6328125 0.625 6.08000000000000007 6.08000000000000007 1
0.640625 0.625 5.84299999999999997 5.84299999999999997 1
0.6484375 0.625 5.62800000000000011 5.62800000000000011 1
0.65625 0.625 5.74199999999999999 5.74199999999999999 1
0.6640625 0.625 5.83100000000000041 5.83100000000000041 1
0.671875 0.625 6.00800000000000001 6.00800000000000001 1
0.6796875 0.625 5.81299999999999972 5.81299999999999972 1
0.6875 0.625 5.76600000000000001 5.76600000000000001 1
0.6953125 0.625 5.58499999999999996 5.58499999999999996 1
0.703125 0.625 5.85700000000000021 5.85700000000000021 1
0.7109375 0.625 5.82800000000000029 5.82800000000000029 1
0.71875 0.625 5.74199999999999999 5.74199999999999999 1
0.7265625 0.625 5.80700000000000038 5.80700000000000038 1
0.734375 0.625 5.74199999999999999 5.74199999999999999 1
0.7421875 0.625 5.69200000000000017 5.69200000000000017 1
0.75 0.625 5.4610000000000003 5.4610000000000003 1
0.7578125 0.625 5.78699999999999992 5.78699999999999992 1
0.765625 0.625 5.7629999999999999 5.7629999999999999 1
0.7734375 0.625 5.69200000000000017 5.69200000000000017 1
0.78125 0.625 5.58499999999999996 5.58499999999999996 1
0.7890625 0.625 5.74199999999999999 5.74199999999999999 1
0.796875 0.625 5.78500000000000014 5.78500000000000014 1
0.8046875 0.625 5.74199999999999999 5.74199999999999999 1
0.8125 0.625 5.89299999999999979 5.89299999999999979 1
0.8203125 0.625 5.58499999999999996 5.58499999999999996 1
0.828125 0.625 5.81400000000000006 5.81400000000000006 1
0.8359375 0.625 5.70999999999999996 5.70999999999999996 1
0.84375 0.625 5.81400000000000006 5.81400000000000006 1
0.8515625 0.625 5.63900000000000023 5.63900000000000023 1
0.859375 0.625 5.61300000000000043 5.61300000000000043 1
0.8671875 0.625 5.58499999999999996 5.58499999999999996 1
0.875 0.625 5.89299999999999979 5.89299999999999979 1
0.8828125 0.625 5.58499999999999996 5.58499999999999996 1
0.890625 0.625 5.62699999999999978 5.62699999999999978 1
0.8984375 0.625 5.58499999999999996 5.58499999999999996 1
0.90625 0.625 5.37100000000000044 5.37100000000000044 1
0.9140625 0.625 5.56700000000000017 5.56700000000000017 1
0.921875 0.625 5.22599999999999998 5.22599999999999998 1
0.9296875 0.625 5.53000000000000025 5.53000000000000025 1
0.9375 0.625 5.14700000000000024 5.14700000000000024 1
0.9453125 0.625 5.58499999999999996 5.58499999999999996 1
0.953125 0.625 5.09499999999999975 5.09499999999999975 1
0.9609375 0.625 5 5 1
0.96875 0.625 5.06400000000000006 5.06400000000000006 1
0.9765625 0.625 5.14700000000000024 5.14700000000000024 1
0.984375 0.625 4.89499999999999957 4.89499999999999957 1
0.9921875 0.625 5.06400000000000006 5.06400000000000006 1
0 0.6328125 5.08699999999999974 5.08699999999999974 1
0.0078125 0.6328125 5 5 1
0.015625 0.6328125 5 5 1
0.0234375 0.6328125 5.04000000000000004 5.04000000000000004 1
0.03125 0.6328125 5.30400000000000027 5.30400000000000027 1
0.0390625 0.6328125 5.50100000000000033 5.50100000000000033 1
0.046875 0.6328125 5.04000000000000004 5.04000000000000004 1
0.0546875 0.6328125 5.17900000000000027 5.17900000000000027 1
0.0625 0.6328125 5.52500000000000036 5.52500000000000036 1
0.0703125 0.6328125 5.34400000000000031 5.34400000000000031 1
0.078125 0.6328125 5.34400000000000031 5.34400000000000031 1
0.0859375 0.6328125 5.30400000000000027 5.30400000000000027 1
0.09375 0.6328125 5.04000000000000004 5.04000000000000004 1
0.1015625 0.6328125 6.12899999999999956 6.12899999999999956 1
0.109375 0.6328125 5.54800000000000004 5.54800000000000004 1
0.1171875 0.6328125 5.74199999999999999 5.74199999999999999 1
0.125 0.6328125 5.58900000000000041 5.58900000000000041 1
0.1328125 0.6328125 5.62100000000000044 5.62100000000000044 1
0.140625 0.6328125 5.4610000000000003 5.4610000000000003 1
0.1484375 0.6328125 5.63699999999999957 5.63699999999999957 1
0.15625 0.6328125 5.58499999999999996 5.58499999999999996 1
0.1640625 0.6328125 5.1980000000000004 5.1980000000000004 1
0.171875 0.6328125 5.66300000000000026 5.66300000000000026 1
0.1796875 0.6328125 5.69700000000000006 5.69700000000000006 1
0.1875 0.6328125 5.69200000000000017 5.69200000000000017 1
0.1953125 0.6328125 5.81400000000000006 5.81400000000000006 1
0.203125 0.6328125 5.70699999999999985 5.70699999999999985 1
0.2109375 0.6328125 5.67400000000000038 5.67400000000000038 1
0.21875 0.6328125 5.66600000000000037 5.66600000000000037 1
0.2265625 0.6328125 5.78200000000000003 5.78200000000000003 1
0.234375 0.6328125 5.89499999999999957 5.89499999999999957 1
0.2421875 0.6328125 5.81400000000000006 5.81400000000000006 1
0.25 0.6328125 5.60400000000000009 5.60400000000000009 1
0.2578125 0.6328125 5.96600000000000019 5.96600000000000019 1
0.265625 0.6328125 5.86399999999999988 5.86399999999999988 1
0.2734375 0.6328125 5.93400000000000016 5.93400000000000016 1
0.28125 0.6328125 5.77200000000000024 5.77200000000000024 1
0.2890625 0.6328125 5.85200000000000031 5.85200000000000031 1
0.296875 0.6328125 5.69000000000000039 5.69000000000000039 1
0.3046875 0.6328125 5.69200000000000017 5.69200000000000017 1
0.3125 0.6328125 5.85500000000000043 5.85500000000000043 1
0.3203125 0.6328125 5.93599999999999994 5.93599999999999994 1
0.328125 0.6328125 6.08800000000000008 6.08800000000000008 1
0.3359375 0.6328125 5.53000000000000025 5.53000000000000025 1
0.34375 0.6328125 5.67400000000000038 5.67400000000000038 1
0.3515625 0.6328125 5.73800000000000043 5.73800000000000043 1
0.359375 0.6328125 5.60400000000000009 5.60400000000000009 1
0.3671875 0.6328125 5.98000000000000043 5.98000000000000043 1
0.375 0.6328125 5.97799999999999976 5.97799999999999976 1
0.3828125 0.6328125 6.18799999999999972 6.18799999999999972 1
0.390625 0.6328125 5.84299999999999997 5.84299999999999997 1
0.3984375 0.6328125 5.99699999999999989 5.99699999999999989 1
0.40625 0.6328125 5.94299999999999962 5.94299999999999962 1
0.4140625 0.6328125 5.67400000000000038 5.67400000000000038 1
0.421875 0.6328125 5.88999999999999968 5.88999999999999968 1
0.4296875 0.6328125 5.88600000000000012 5.88600000000000012 1
0.4375 0.6328125 5.74199999999999999 5.74199999999999999 1
0.4453125 0.6328125 5.67400000000000038 5.67400000000000038 1
0.453125 0.6328125 5.76600000000000001 5.76600000000000001 1
0.4609375 0.6328125 5.88900000000000023 5.88900000000000023 1
0.46875 0.6328125 5.94899999999999984 5.94899999999999984 1
0.4765625 0.6328125 6.03399999999999981 6.03399999999999981 1
0.484375 0.6328125 6.12300000000000022 6.12300000000000022 1
0.4921875 0.6328125 6.09100000000000019 6.09100000000000019 1
0.5 0.6328125 5.63900000000000023 5.63900000000000023 1
0.5078125 0.6328125 5.9870000000000001 5.9870000000000001 1
0.515625 0.6328125 6.04199999999999982 6.04199999999999982 1
0.5234375 0.6328125 5.94299999999999962 5.94299999999999962 1
0.53125 0.6328125 5.81400000000000006 5.81400000000000006 1
0.5390625 0.6328125 5.94700000000000006 5.94700000000000006 1
0.546875 0.6328125 5.74199999999999999 5.74199999999999999 1
0.5546875 0.6328125 5.69200000000000017 5.69200000000000017 1
0.5625 0.6328125 5.90500000000000025 5.90500000000000025 1
0.5703125 0.6328125 5.34400000000000031 5.34400000000000031 1
0.578125 0.6328125 5.98000000000000043 5.98000000000000043 1
0.5859375 0.6328125 5.92900000000000027 5.92900000000000027 1
0.59375 0.6328125 5.94399999999999995 5.94399999999999995 1
0.6015625 0.6328125 5.58499999999999996 5.58499999999999996 1
0.609375 0.6328125 5.93400000000000016 5.93400000000000016 1
0.6171875 0.6328125 5.88300000000000001 5.88300000000000001 1
0.625 0.6328125 5.5730000000000004 5.5730000000000004 1
0.6328125 0.6328125 5.81400000000000006 5.81400000000000006 1
0.640625 0.6328125 5.98200000000000021 5.98200000000000021 1
0.6484375 0.6328125 5.83199999999999985 5.83199999999999985 1
0.65625 0.6328125 5.74199999999999999 5.74199999999999999 1
0.6640625 0.6328125 6.10799999999999965 6.10799999999999965 1
0.671875 0.6328125 5.81200000000000028 5.81200000000000028 1
0.6796875 0.6328125 6.00199999999999978 6.00199999999999978 1
0.6875 0.6328125 5.63900000000000023 5.63900000000000023 1
0.6953125 0.6328125 5.4610000000000003 5.4610000000000003 1
0.703125 0.6328125 5.82599999999999962 5.82599999999999962 1
0.7109375 0.6328125 5.81400000000000006 5.81400000000000006 1
0.71875 0.6328125 5.60400000000000009 5.60400000000000009 1
0.7265625 0.6328125 5.74199999999999999 5.74199999999999999 1
0.734375 0.6328125 5.83000000000000007 5.83000000000000007 1
0.7421875 0.6328125 5.9740000000000002 5.9740000000000002 1
0.75 0.6328125 5.73800000000000043 5.73800000000000043 1
0.7578125 0.6328125 5.69700000000000006 5.69700000000000006 1
0.765625 0.6328125 5.84100000000000019 5.84100000000000019 1
0.7734375 0.6328125 5.69200000000000017 5.69200000000000017 1
0.78125 0.6328125 5.61899999999999977 5.61899999999999977 1
0.7890625 0.6328125 5.76499999999999968 5.76499999999999968 1
0.796875 0.6328125 5.67400000000000038 5.67400000000000038 1
0.8046875 0.6328125 5.46900000000000031 5.46900000000000031 1
0.8125 0.6328125 5.74199999999999999 5.74199999999999999 1
0.8203125 0.6328125 5.58499999999999996 5.58499999999999996 1
0.828125 0.6328125 5.88600000000000012 5.88600000000000012 1
0.8359375 0.6328125 5.69200000000000017 5.69200000000000017 1
0.84375 0.6328125 5.62800000000000011 5.62800000000000011 1
0.8515625 0.6328125 5.75399999999999956 5.75399999999999956 1
0.859375 0.6328125 5.58499999999999996 5.58499999999999996 1
0.8671875 0.6328125 5.53500000000000014 5.53500000000000014 1
0.875 0.6328125 5.57099999999999973 5.57099999999999973 1
0.8828125 0.6328125 5.58499999999999996 5.58499999999999996 1
0.890625 0.6328125 5.4610000000000003 5.4610000000000003 1
0.8984375 0.6328125 5.77700000000000014 5.77700000000000014 1
0.90625 0.6328125 5.55999999999999961 5.55999999999999961 1
0.9140625 0.6328125 5.58499999999999996 5.58499999999999996 1
0.921875 0.6328125 5.48800000000000043 5.48800000000000043 1
0.9296875 0.6328125 5.74199999999999999 5.74199999999999999 1
0.9375 0.6328125 5.14700000000000024 5.14700000000000024 1
0.9453125 0.6328125 5.30400000000000027 5.30400000000000027 1
0.953125 0.6328125 5.04000000000000004 5.04000000000000004 1
0.9609375 0.6328125 5.01600000000000001 5.01600000000000001 1
0.96875 0.6328125 5.04000000000000004 5.04000000000000004 1
0.9765625 0.6328125 5.22200000000000042 5.22200000000000042 1
0.984375 0.6328125 4.82699999999999996 4.82699999999999996 1
0.9921875 0.6328125 5.04000000000000004 5.04000000000000004 1
0 0.640625 4.65200000000000014 4.65200000000000014 1
0.0078125 0.640625 5 5 1
0.015625 0.640625 5 5 1
0.0234375 0.640625 5.06400000000000006 5.06400000000000006 1
0.03125 0.640625 5.29300000000000015 5.29300000000000015 1
0.0390625 0.640625 5.43499999999999961 5.43499999999999961 1
0.046875 0.640625 5.41500000000000004 5.41500000000000004 1
0.0546875 0.640625 5.48299999999999965 5.48299999999999965 1
0.0625 0.640625 5.5129999999999999 5.5129999999999999 1
0.0703125 0.640625 5.55799999999999983 5.55799999999999983 1
0.078125 0.640625 5.34400000000000031 5.34400000000000031 1
0.0859375 0.640625 5.22599999999999998 5.22599999999999998 1
0.09375 0.640625 5.58499999999999996 5.58499999999999996 1
0.1015625 0.640625 5.63900000000000023 5.63900000000000023 1
0.109375 0.640625 5.84700000000000042 5.84700000000000042 1
0.1171875 0.640625 5.65599999999999969 5.65599999999999969 1
0.125 0.640625 5.54300000000000015 5.54300000000000015 1
0.1328125 0.640625 5.62800000000000011 5.62800000000000011 1
0.140625 0.640625 5.30400000000000027 5.30400000000000027 1
0.1484375 0.640625 5.58100000000000041 5.58100000000000041 1
0.15625 0.640625 5.52500000000000036 5.52500000000000036 1
0.1640625 0.640625 5.34999999999999964 5.34999999999999964 1
0.171875 0.640625 5.4610000000000003 5.4610000000000003 1
0.1796875 0.640625 5.58499999999999996 5.58499999999999996 1
0.1875 0.640625 5.99500000000000011 5.99500000000000011 1
0.1953125 0.640625 5.67400000000000038 5.67400000000000038 1
0.203125 0.640625 5.76600000000000001 5.76600000000000001 1
0.2109375 0.640625 5.4610000000000003 5.4610000000000003 1
0.21875 0.640625 5.74699999999999989 5.74699999999999989 1
0.2265625 0.640625 5.72499999999999964 5.72499999999999964 1
0.234375 0.640625 5.8019999999999996 5.8019999999999996 1
0.2421875 0.640625 5.88600000000000012 5.88600000000000012 1
0.25 0.640625 6.00800000000000001 6.00800000000000001 1
0.2578125 0.640625 5.65599999999999969 5.65599999999999969 1
0.265625 0.640625 5.74199999999999999 5.74199999999999999 1
0.2734375 0.640625 5.85099999999999998 5.85099999999999998 1
0.28125 0.640625 5.58499999999999996 5.58499999999999996 1
0.2890625 0.640625 5.82399999999999984 5.82399999999999984 1
0.296875 0.640625 5.88499999999999979 5.88499999999999979 1
0.3046875 0.640625 5.93400000000000016 5.93400000000000016 1
0.3125 0.640625 5.67400000000000038 5.67400000000000038 1
0.3203125 0.640625 5.94299999999999962 5.94299999999999962 1
0.328125 0.640625 5.63900000000000023 5.63900000000000023 1
0.3359375 0.640625 5.87199999999999989 5.87199999999999989 1
0.34375 0.640625 5.87800000000000011 5.87800000000000011 1
0.3515625 0.640625 5.88600000000000012 5.88600000000000012 1
0.359375 0.640625 5.76600000000000001 5.76600000000000001 1
0.3671875 0.640625 5.81400000000000006 5.81400000000000006 1
0.375 0.640625 5.98000000000000043 5.98000000000000043 1
0.3828125 0.640625 5.81400000000000006 5.81400000000000006 1
0.390625 0.640625 6.15200000000000014 6.15200000000000014 1
0.3984375 0.640625 5.90500000000000025 5.90500000000000025 1
0.40625 0.640625 5.91899999999999959 5.91899999999999959 1
0.4140625 0.640625 5.88600000000000012 5.88600000000000012 1
0.421875 0.640625 5.84299999999999997 5.84299999999999997 1
0.4296875 0.640625 5.88600000000000012 5.88600000000000012 1
0.4375 0.640625 5.78599999999999959 5.78599999999999959 1
0.4453125 0.640625 5.8019999999999996 5.8019999999999996 1
0.453125 0.640625 6.00800000000000001 6.00800000000000001 1
0.4609375 0.640625 5.99099999999999966 5.99099999999999966 1
0.46875 0.640625 5.84299999999999997 5.84299999999999997 1
0.4765625 0.640625 5.60400000000000009 5.60400000000000009 1
0.484375 0.640625 5.97499999999999964 5.97499999999999964 1
0.4921875 0.640625 5.81500000000000039 5.81500000000000039 1
0.5 0.640625 5.58499999999999996 5.58499999999999996 1
0.5078125 0.640625 5.88600000000000012 5.88600000000000012 1
0.515625 0.640625 5.81400000000000006 5.81400000000000006 1
0.5234375 0.640625 5.94899999999999984 5.94899999999999984 1
0.53125 0.640625 6.05999999999999961 6.05999999999999961 1
0.5390625 0.640625 5.88600000000000012 5.88600000000000012 1
0.546875 0.640625 6.10299999999999976 6.10299999999999976 1
0.5546875 0.640625 6.00499999999999989 6.00499999999999989 1
0.5625 0.640625 5.58499999999999996 5.58499999999999996 1
0.5703125 0.640625 5.75199999999999978 5.75199999999999978 1
0.578125 0.640625 5.74399999999999977 5.74399999999999977 1
0.5859375 0.640625 5.78000000000000025 5.78000000000000025 1
0.59375 0.640625 5.69200000000000017 5.69200000000000017 1
0.6015625 0.640625 5.98000000000000043 5.98000000000000043 1
0.609375 0.640625 5.76600000000000001 5.76600000000000001 1
0.6171875 0.640625 5.88600000000000012 5.88600000000000012 1
0.625 0.640625 5.88400000000000034 5.88400000000000034 1
0.6328125 0.640625 5.67400000000000038 5.67400000000000038 1
0.640625 0.640625 5.98000000000000043 5.98000000000000043 1
0.6484375 0.640625 5.84600000000000009 5.84600000000000009 1
0.65625 0.640625 5.84299999999999997 5.84299999999999997 1
0.6640625 0.640625 5.66500000000000004 5.66500000000000004 1
0.671875 0.640625 5.86000000000000032 5.86000000000000032 1
0.6796875 0.640625 5.74199999999999999 5.74199999999999999 1
0.6875 0.640625 5.67400000000000038 5.67400000000000038 1
0.6953125 0.640625 5.83999999999999986 5.83999999999999986 1
0.703125 0.640625 6.05700000000000038 6.05700000000000038 1
0.7109375 0.640625 5.63900000000000023 5.63900000000000023 1
0.71875 0.640625 5.88100000000000023 5.88100000000000023 1
0.7265625 0.640625 5.9740000000000002 5.9740000000000002 1
0.734375 0.640625 5.88600000000000012 5.88600000000000012 1
0.7421875 0.640625 5.86899999999999977 5.86899999999999977 1
0.75 0.640625 5.88600000000000012 5.88600000000000012 1
0.7578125 0.640625 5.58499999999999996 5.58499999999999996 1
0.765625 0.640625 5.60400000000000009 5.60400000000000009 1
0.7734375 0.640625 5.70800000000000018 5.70800000000000018 1
0.78125 0.640625 5.7629999999999999 5.7629999999999999 1
0.7890625 0.640625 5.78500000000000014 5.78500000000000014 1
0.796875 0.640625 5.81400000000000006 5.81400000000000006 1
0.8046875 0.640625 5.47900000000000009 5.47900000000000009 1
0.8125 0.640625 5.63900000000000023 5.63900000000000023 1
0.8203125 0.640625 5.69700000000000006 5.69700000000000006 1
0.828125 0.640625 5.82699999999999996 5.82699999999999996 1
0.8359375 0.640625 5.73500000000000032 5.73500000000000032 1
0.84375 0.640625 5.69099999999999984 5.69099999999999984 1
0.8515625 0.640625 5.34100000000000019 5.34100000000000019 1
0.859375 0.640625 5.22599999999999998 5.22599999999999998 1
0.8671875 0.640625 5.43100000000000005 5.43100000000000005 1
0.875 0.640625 5.74199999999999999 5.74199999999999999 1
0.8828125 0.640625 5.58499999999999996 5.58499999999999996 1
0.890625 0.640625 5.22599999999999998 5.22599999999999998 1
0.8984375 0.640625 5.49800000000000022 5.49800000000000022 1
0.90625 0.640625 5.58499999999999996 5.58499999999999996 1
0.9140625 0.640625 5.66000000000000014 5.66000000000000014 1
0.921875 0.640625 5.2110000000000003 5.2110000000000003 1
0.9296875 0.640625 5.56400000000000006 5.56400000000000006 1
0.9375 0.640625 5.14700000000000024 5.14700000000000024 1
0.9453125 0.640625 5.14700000000000024 5.14700000000000024 1
0.953125 0.640625 5.14700000000000024 5.14700000000000024 1
0.9609375 0.640625 5.11500000000000021 5.11500000000000021 1
0.96875 0.640625 5.4009999999999998 5.4009999999999998 1
0.9765625 0.640625 4.73899999999999988 4.73899999999999988 1
0.984375 0.640625 4.84999999999999964 4.84999999999999964 1
0.9921875 0.640625 4.96999999999999975 4.96999999999999975 1
0 0.6484375 5.00100000000000033 5.00100000000000033 1
0.0078125 0.6484375 4.90599999999999969 4.90599999999999969 1
0.015625 0.6484375 4.73800000000000043 4.73800000000000043 1
0.0234375 0.6484375 4.76700000000000035 4.76700000000000035 1
0.03125 0.6484375 5.22599999999999998 5.22599999999999998 1
0.0390625 0.6484375 5.39100000000000001 5.39100000000000001 1
0.046875 0.6484375 5.49399999999999977 5.49399999999999977 1
0.0546875 0.6484375 5.04000000000000004 5.04000000000000004 1
0.0625 0.6484375 5.26199999999999957 5.26199999999999957 1
0.0703125 0.6484375 5.07399999999999984 5.07399999999999984 1
0.078125 0.6484375 5.25999999999999979 5.25999999999999979 1
0.0859375 0.6484375 5.20899999999999963 5.20899999999999963 1
0.09375 0.6484375 5.34400000000000031 5.34400000000000031 1
0.1015625 0.6484375 5.30400000000000027 5.30400000000000027 1
0.109375 0.6484375 5.58499999999999996 5.58499999999999996 1
0.1171875 0.6484375 5.39100000000000001 5.39100000000000001 1
0.125 0.6484375 5.67799999999999994 5.67799999999999994 1
0.1328125 0.6484375 5.62800000000000011 5.62800000000000011 1
0.140625 0.6484375 5.66199999999999992 5.66199999999999992 1
0.1484375 0.6484375 5.52899999999999991 5.52899999999999991 1
0.15625 0.6484375 5.85299999999999976 5.85299999999999976 1
0.1640625 0.6484375 5.39100000000000001 5.39100000000000001 1
0.171875 0.6484375 5.70999999999999996 5.70999999999999996 1
0.1796875 0.6484375 5.46900000000000031 5.46900000000000031 1
0.1875 0.6484375 5.58499999999999996 5.58499999999999996 1
0.1953125 0.6484375 5.81400000000000006 5.81400000000000006 1
0.203125 0.6484375 5.58499999999999996 5.58499999999999996 1
0.2109375 0.6484375 5.69200000000000017 5.69200000000000017 1
0.21875 0.6484375 5.86599999999999966 5.86599999999999966 1
0.2265625 0.6484375 5.63900000000000023 5.63900000000000023 1
0.234375 0.6484375 5.63900000000000023 5.63900000000000023 1
0.2421875 0.6484375 5.83199999999999985 5.83199999999999985 1
0.25 0.6484375 5.83199999999999985 5.83199999999999985 1
0.2578125 0.6484375 5.87000000000000011 5.87000000000000011 1
0.265625 0.6484375 5.78500000000000014 5.78500000000000014 1
0.2734375 0.6484375 5.83699999999999974 5.83699999999999974 1
0.28125 0.6484375 5.58499999999999996 5.58499999999999996 1
0.2890625 0.6484375 5.85700000000000021 5.85700000000000021 1
0.296875 0.6484375 5.88100000000000023 5.88100000000000023 1
0.3046875 0.6484375 5.84299999999999997 5.84299999999999997 1
0.3125 0.6484375 5.9139999999999997 5.9139999999999997 1
0.3203125 0.6484375 5.63900000000000023 5.63900000000000023 1
0.328125 0.6484375 6.02799999999999958 6.02799999999999958 1
0.3359375 0.6484375 6.06099999999999994 6.06099999999999994 1
0.34375 0.6484375 5.88600000000000012 5.88600000000000012 1
0.3515625 0.6484375 5.58499999999999996 5.58499999999999996 1
0.359375 0.6484375 5.81400000000000006 5.81400000000000006 1
0.3671875 0.6484375 5.88600000000000012 5.88600000000000012 1
0.375 0.6484375 5.60400000000000009 5.60400000000000009 1
0.3828125 0.6484375 5.84400000000000031 5.84400000000000031 1
0.390625 0.6484375 5.67400000000000038 5.67400000000000038 1
0.3984375 0.6484375 5.95500000000000007 5.95500000000000007 1
0.40625 0.6484375 5.98000000000000043 5.98000000000000043 1
0.4140625 0.6484375 5.76600000000000001 5.76600000000000001 1
0.421875 0.6484375 5.88600000000000012 5.88600000000000012 1
0.4296875 0.6484375 5.81400000000000006 5.81400000000000006 1
0.4375 0.6484375 5.84299999999999997 5.84299999999999997 1
0.4453125 0.6484375 5.98000000000000043 5.98000000000000043 1
0.453125 0.6484375 5.83100000000000041 5.83100000000000041 1
0.4609375 0.6484375 5.73899999999999988 5.73899999999999988 1
0.46875 0.6484375 5.63900000000000023 5.63900000000000023 1
0.4765625 0.6484375 6.19899999999999984 6.19899999999999984 1
0.484375 0.6484375 5.69200000000000017 5.69200000000000017 1
0.4921875 0.6484375 5.9740000000000002 5.9740000000000002 1
0.5 0.6484375 5.91800000000000015 5.91800000000000015 1
0.5078125 0.6484375 5.74199999999999999 5.74199999999999999 1
0.515625 0.6484375 5.90899999999999981 5.90899999999999981 1
0.5234375 0.6484375 6.19200000000000017 6.19200000000000017 1
0.53125 0.6484375 6.1639999999999997 6.1639999999999997 1
0.5390625 0.6484375 5.74199999999999999 5.74199999999999999 1
0.546875 0.6484375 5.76600000000000001 5.76600000000000001 1
0.5546875 0.6484375 5.81400000000000006 5.81400000000000006 1
0.5625 0.6484375 5.86399999999999988 5.86399999999999988 1
0.5703125 0.6484375 6.29100000000000037 6.29100000000000037 1
0.578125 0.6484375 5.96400000000000041 5.96400000000000041 1
0.5859375 0.6484375 5.80700000000000038 5.80700000000000038 1
0.59375 0.6484375 5.58499999999999996 5.58499999999999996 1
0.6015625 0.6484375 5.88600000000000012 5.88600000000000012 1
0.609375 0.6484375 5.9740000000000002 5.9740000000000002 1
0.6171875 0.6484375 6.03200000000000003 6.03200000000000003 1
0.625 0.6484375 5.67400000000000038 5.67400000000000038 1
0.6328125 0.6484375 5.78200000000000003 5.78200000000000003 1
0.640625 0.6484375 6.06500000000000039 6.06500000000000039 1
0.6484375 0.6484375 6.04499999999999993 6.04499999999999993 1
0.65625 0.6484375 5.88600000000000012 5.88600000000000012 1
0.6640625 0.6484375 6.09799999999999986 6.09799999999999986 1
0.671875 0.6484375 5.69200000000000017 5.69200000000000017 1
0.6796875 0.6484375 5.84299999999999997 5.84299999999999997 1
0.6875 0.6484375 5.84299999999999997 5.84299999999999997 1
0.6953125 0.6484375 5.9740000000000002 5.9740000000000002 1
0.703125 0.6484375 5.96900000000000031 5.96900000000000031 1
0.7109375 0.6484375 5.81400000000000006 5.81400000000000006 1
0.71875 0.6484375 5.81400000000000006 5.81400000000000006 1
0.7265625 0.6484375 5.88699999999999957 5.88699999999999957 1
0.734375 0.6484375 5.81400000000000006 5.81400000000000006 1
0.7421875 0.6484375 5.74199999999999999 5.74199999999999999 1
0.75 0.6484375 5.98500000000000032 5.98500000000000032 1
0.7578125 0.6484375 5.72100000000000009 5.72100000000000009 1
0.765625 0.6484375 5.74199999999999999 5.74199999999999999 1
0.7734375 0.6484375 5.60400000000000009 5.60400000000000009 1
0.78125 0.6484375 5.58499999999999996 5.58499999999999996 1
0.7890625 0.6484375 5.76600000000000001 5.76600000000000001 1
0.796875 0.6484375 5.84299999999999997 5.84299999999999997 1
0.8046875 0.6484375 5.89599999999999991 5.89599999999999991 1
0.8125 0.6484375 5.80100000000000016 5.80100000000000016 1
0.8203125 0.6484375 5.60299999999999976 5.60299999999999976 1
0.828125 0.6484375 5.58499999999999996 5.58499999999999996 1
0.8359375 0.6484375 5.58499999999999996 5.58499999999999996 1
0.84375 0.6484375 5.39100000000000001 5.39100000000000001 1
0.8515625 0.6484375 5.68100000000000005 5.68100000000000005 1
0.859375 0.6484375 5.38900000000000023 5.38900000000000023 1
0.8671875 0.6484375 5.63400000000000034 5.63400000000000034 1
0.875 0.6484375 5.74199999999999999 5.74199999999999999 1
0.8828125 0.6484375 5.58499999999999996 5.58499999999999996 1
0.890625 0.6484375 5.22599999999999998 5.22599999999999998 1
0.8984375 0.6484375 5.63900000000000023 5.63900000000000023 1
0.90625 0.6484375 5.53000000000000025 5.53000000000000025 1
0.9140625 0.6484375 5.47799999999999976 5.47799999999999976 1
0.921875 0.6484375 5.32200000000000006 5.32200000000000006 1
0.9296875 0.6484375 5.65200000000000014 5.65200000000000014 1
0.9375 0.6484375 5.36000000000000032 5.36000000000000032 1
0.9453125 0.6484375 5.50300000000000011 5.50300000000000011 1
0.953125 0.6484375 5.27099999999999991 5.27099999999999991 1
0.9609375 0.6484375 5.22599999999999998 5.22599999999999998 1
0.96875 0.6484375 5.15500000000000025 5.15500000000000025 1
0.9765625 0.6484375 5.04000000000000004 5.04000000000000004 1
0.984375 0.6484375 5 5 1
