ply
format ascii 1.0
element vertex 769
property double x
property double y
property double z
property double depth
property double albedo
end_header
0.7890625 0.4375 0.212999999999999995 0.212999999999999995 1
0.796875 0.4375 0.290999999999999981 0.290999999999999981 1
0.8046875 0.4375 0.348999999999999977 0.348999999999999977 1
0.8125 0.4375 0.220000000000000001 0.220000000000000001 1
0.8203125 0.4375 0.410999999999999976 0.410999999999999976 1
0.828125 0.4375 0.409999999999999976 0.409999999999999976 1
0.8359375 0.4375 0.441000000000000003 0.441000000000000003 1
0.84375 0.4375 0.376000000000000001 0.376000000000000001 1
0.8515625 0.4375 0 0 1
0.859375 0.4375 0.149999999999999994 0.149999999999999994 1
0.8671875 0.4375 0.076999999999999999 0.076999999999999999 1
0.875 0.4375 0.00300000000000000006 0.00300000000000000006 1
0.8828125 0.4375 0.0280000000000000006 0.0280000000000000006 1
0.890625 0.4375 0.427999999999999992 0.427999999999999992 1
0.8984375 0.4375 0.149999999999999994 0.149999999999999994 1
0.90625 0.4375 0.409999999999999976 0.409999999999999976 1
0.9140625 0.4375 0.0340000000000000024 0.0340000000000000024 1
0.921875 0.4375 0.429999999999999993 0.429999999999999993 1
0.9296875 0.4375 0.165000000000000008 0.165000000000000008 1
0.9375 0.4375 0.357999999999999985 0.357999999999999985 1
0.9453125 0.4375 0.0929999999999999993 0.0929999999999999993 1
0.953125 0.4375 0.25 0.25 1
0.9609375 0.4375 0.149999999999999994 0.149999999999999994 1
0.96875 0.4375 0.0240000000000000005 0.0240000000000000005 1
0.9765625 0.4375 0 0 1
0.984375 0.4375 0.277000000000000024 0.277000000000000024 1
0.9921875 0.4375 0.121999999999999997 0.121999999999999997 1
0 0.4453125 0.00300000000000000006 0.00300000000000000006 1
0.0078125 0.4453125 0.409999999999999976 0.409999999999999976 1
0.015625 0.4453125 0.0609999999999999987 0.0609999999999999987 1
0.0234375 0.4453125 0.28999999999999998 0.28999999999999998 1
0.03125 0.4453125 0.165000000000000008 0.165000000000000008 1
0.0390625 0.4453125 0.598999999999999977 0.598999999999999977 1
0.046875 0.4453125 0.247999999999999998 0.247999999999999998 1
0.0546875 0.4453125 0.277000000000000024 0.277000000000000024 1
0.0625 0.4453125 0.475999999999999979 0.475999999999999979 1
0.0703125 0.4453125 0.190000000000000002 0.190000000000000002 1
0.078125 0.4453125 0.241999999999999993 0.241999999999999993 1
0.0859375 0.4453125 0 0 1
0.09375 0.4453125 0.165000000000000008 0.165000000000000008 1
0.1015625 0.4453125 0.122999999999999998 0.122999999999999998 1
0.109375 0.4453125 0.00300000000000000006 0.00300000000000000006 1
0.1171875 0.4453125 0.277000000000000024 0.277000000000000024 1
0.125 0.4453125 0.187 0.187 1
0.1328125 0.4453125 0.439000000000000001 0.439000000000000001 1
0.140625 0.4453125 0.165000000000000008 0.165000000000000008 1
0.1484375 0.4453125 0.221000000000000002 0.221000000000000002 1
0.15625 0.4453125 0.00300000000000000006 0.00300000000000000006 1
0.1640625 0.4453125 0.165000000000000008 0.165000000000000008 1
0.171875 0.4453125 0 0 1
0.1796875 0.4453125 0.246999999999999997 0.246999999999999997 1
0.1875 0.4453125 0.0899999999999999967 0.0899999999999999967 1
0.1953125 0.4453125 0.140000000000000013 0.140000000000000013 1
0.203125 0.4453125 0.542000000000000037 0.542000000000000037 1
0.2109375 0.4453125 0.234999999999999987 0.234999999999999987 1
0.21875 0.4453125 0.076999999999999999 0.076999999999999999 1
0.2265625 0.4453125 0.281999999999999973 0.281999999999999973 1
0.234375 0.4453125 0 0 1
0.2421875 0.4453125 0.128000000000000003 0.128000000000000003 1
0.25 0.4453125 0.350999999999999979 0.350999999999999979 1
0.2578125 0.4453125 0.301999999999999991 0.301999999999999991 1
0.265625 0.4453125 0.23000000000000001 0.23000000000000001 1
0.2734375 0.4453125 0.196000000000000008 0.196000000000000008 1
0.28125 0.4453125 0.00300000000000000006 0.00300000000000000006 1
0.2890625 0.4453125 0.277000000000000024 0.277000000000000024 1
0.296875 0.4453125 0.290999999999999981 0.290999999999999981 1
0.3046875 0.4453125 0.152999999999999997 0.152999999999999997 1
0.3125 0.4453125 9.90300000000000047 9.90300000000000047 1
0.3203125 0.4453125 0.446000000000000008 0.446000000000000008 1
0.328125 0.4453125 0.389000000000000012 0.389000000000000012 1
0.3359375 0.4453125 0.190000000000000002 0.190000000000000002 1
0.34375 0.4453125 0.0609999999999999987 0.0609999999999999987 1
0.3515625 0.4453125 0.426999999999999991 0.426999999999999991 1
0.359375 0.4453125 0.115000000000000005 0.115000000000000005 1
0.3671875 0.4453125 0.0700000000000000067 0.0700000000000000067 1
0.375 0.4453125 0.322000000000000008 0.322000000000000008 1
0.3828125 0.4453125 0.277000000000000024 0.277000000000000024 1
0.390625 0.4453125 0.0700000000000000067 0.0700000000000000067 1
0.3984375 0.4453125 0.41499999999999998 0.41499999999999998 1
0.40625 0.4453125 0.0519999999999999976 0.0519999999999999976 1
0.4140625 0.4453125 0.277000000000000024 0.277000000000000024 1
0.421875 0.4453125 0.396000000000000019 0.396000000000000019 1
0.4296875 0.4453125 0.00300000000000000006 0.00300000000000000006 1
0.4375 0.4453125 0.247999999999999998 0.247999999999999998 1
0.4453125 0.4453125 0.356999999999999984 0.356999999999999984 1
0.453125 0.4453125 0.170000000000000012 0.170000000000000012 1
0.4609375 0.4453125 0.345999999999999974 0.345999999999999974 1
0.46875 0.4453125 0.262000000000000011 0.262000000000000011 1
0.4765625 0.4453125 0.0149999999999999994 0.0149999999999999994 1
0.484375 0.4453125 0.0609999999999999987 0.0609999999999999987 1
0.4921875 0.4453125 0.458000000000000018 0.458000000000000018 1
0.5 0.4453125 0.165000000000000008 0.165000000000000008 1
0.5078125 0.4453125 0.409999999999999976 0.409999999999999976 1
0.515625 0.4453125 0.443000000000000005 0.443000000000000005 1
0.5234375 0.4453125 0.0309999999999999998 0.0309999999999999998 1
0.53125 0.4453125 0.429999999999999993 0.429999999999999993 1
0.5390625 0.4453125 0.381000000000000005 0.381000000000000005 1
0.546875 0.4453125 0.125 0.125 1
0.5546875 0.4453125 0.574999999999999956 0.574999999999999956 1
0.5625 0.4453125 0.379000000000000004 0.379000000000000004 1
0.5703125 0.4453125 0.00300000000000000006 0.00300000000000000006 1
0.578125 0.4453125 0.0690000000000000058 0.0690000000000000058 1
0.5859375 0.4453125 0.115000000000000005 0.115000000000000005 1
0.59375 0.4453125 0.165000000000000008 0.165000000000000008 1
0.6015625 0.4453125 0.446000000000000008 0.446000000000000008 1
0.609375 0.4453125 0.149999999999999994 0.149999999999999994 1
0.6171875 0.4453125 0.173999999999999988 0.173999999999999988 1
0.625 0.4453125 0.52200000000000002 0.52200000000000002 1
0.6328125 0.4453125 0.00300000000000000006 0.00300000000000000006 1
0.640625 0.4453125 0.474999999999999978 0.474999999999999978 1
0.6484375 0.4453125 0.00600000000000000012 0.00600000000000000012 1
0.65625 0.4453125 0.586999999999999966 0.586999999999999966 1
0.6640625 0.4453125 0.190000000000000002 0.190000000000000002 1
0.671875 0.4453125 0.234999999999999987 0.234999999999999987 1
0.6796875 0.4453125 0.372999999999999998 0.372999999999999998 1
0.6875 0.4453125 0.212999999999999995 0.212999999999999995 1
0.6953125 0.4453125 0.165000000000000008 0.165000000000000008 1
0.703125 0.4453125 0.143999999999999989 0.143999999999999989 1
0.7109375 0.4453125 0.149999999999999994 0.149999999999999994 1
0.71875 0.4453125 0.27200000000000002 0.27200000000000002 1
0.7265625 0.4453125 0.00300000000000000006 0.00300000000000000006 1
0.734375 0.4453125 0.237999999999999989 0.237999999999999989 1
0.7421875 0.4453125 0.0889999999999999958 0.0889999999999999958 1
0.75 0.4453125 0.149999999999999994 0.149999999999999994 1
0.7578125 0.4453125 0.38600000000000001 0.38600000000000001 1
0.765625 0.4453125 0.319000000000000006 0.319000000000000006 1
0.7734375 0.4453125 0.190000000000000002 0.190000000000000002 1
0.78125 0.4453125 0.391000000000000014 0.391000000000000014 1
0.7890625 0.4453125 0 0 1
0.796875 0.4453125 0.445000000000000007 0.445000000000000007 1
0.8046875 0.4453125 0.319000000000000006 0.319000000000000006 1
0.8125 0.4453125 0.446000000000000008 0.446000000000000008 1
0.8203125 0.4453125 0.277000000000000024 0.277000000000000024 1
0.828125 0.4453125 0.00300000000000000006 0.00300000000000000006 1
0.8359375 0.4453125 0.140000000000000013 0.140000000000000013 1
0.84375 0.4453125 0.355999999999999983 0.355999999999999983 1
0.8515625 0.4453125 0.00300000000000000006 0.00300000000000000006 1
0.859375 0.4453125 0.350999999999999979 0.350999999999999979 1
0.8671875 0.4453125 0.140000000000000013 0.140000000000000013 1
0.875 0.4453125 0.586999999999999966 0.586999999999999966 1
0.8828125 0.4453125 0.142999999999999988 0.142999999999999988 1
0.890625 0.4453125 0.234999999999999987 0.234999999999999987 1
0.8984375 0.4453125 0.336000000000000021 0.336000000000000021 1
0.90625 0.4453125 0.0149999999999999994 0.0149999999999999994 1
0.9140625 0.4453125 0.101999999999999993 0.101999999999999993 1
0.921875 0.4453125 0.409999999999999976 0.409999999999999976 1
0.9296875 0.4453125 0.0309999999999999998 0.0309999999999999998 1
0.9375 0.4453125 0.432999999999999996 0.432999999999999996 1
0.9453125 0.4453125 0.0690000000000000058 0.0690000000000000058 1
0.953125 0.4453125 0.00300000000000000006 0.00300000000000000006 1
0.9609375 0.4453125 0.345999999999999974 0.345999999999999974 1
0.96875 0.4453125 0.208999999999999991 0.208999999999999991 1
0.9765625 0.4453125 0.0149999999999999994 0.0149999999999999994 1
0.984375 0.4453125 0.290999999999999981 0.290999999999999981 1
0.9921875 0.4453125 0.409999999999999976 0.409999999999999976 1
0 0.453125 0.254000000000000004 0.254000000000000004 1
0.0078125 0.453125 0.409999999999999976 0.409999999999999976 1
0.015625 0.453125 0.312 0.312 1
0.0234375 0.453125 0.464000000000000024 0.464000000000000024 1
0.03125 0.453125 0.298999999999999988 0.298999999999999988 1
0.0390625 0.453125 0.267000000000000015 0.267000000000000015 1
0.046875 0.453125 0.23000000000000001 0.23000000000000001 1
0.0546875 0.453125 0.198000000000000009 0.198000000000000009 1
0.0625 0.453125 0.282999999999999974 0.282999999999999974 1
0.0703125 0.453125 0.361999999999999988 0.361999999999999988 1
0.078125 0.453125 0.260000000000000009 0.260000000000000009 1
0.0859375 0.453125 0.277000000000000024 0.277000000000000024 1
0.09375 0.453125 0.267000000000000015 0.267000000000000015 1
0.1015625 0.453125 9.80300000000000082 9.80300000000000082 1
0.109375 0.453125 0.336000000000000021 0.336000000000000021 1
0.1171875 0.453125 0.115000000000000005 0.115000000000000005 1
0.125 0.453125 0.667000000000000037 0.667000000000000037 1
0.1328125 0.453125 0.202000000000000013 0.202000000000000013 1
0.140625 0.453125 0.23000000000000001 0.23000000000000001 1
0.1484375 0.453125 0.165000000000000008 0.165000000000000008 1
0.15625 0.453125 0.316000000000000003 0.316000000000000003 1
0.1640625 0.453125 0.0609999999999999987 0.0609999999999999987 1
0.171875 0.453125 0.190000000000000002 0.190000000000000002 1
0.1796875 0.453125 0.217999999999999999 0.217999999999999999 1
0.1875 0.453125 0.198000000000000009 0.198000000000000009 1
0.1953125 0.453125 0.407999999999999974 0.407999999999999974 1
0.203125 0.453125 0.441000000000000003 0.441000000000000003 1
0.2109375 0.453125 0.190000000000000002 0.190000000000000002 1
0.21875 0.453125 0.395000000000000018 0.395000000000000018 1
0.2265625 0.453125 0.00300000000000000006 0.00300000000000000006 1
0.234375 0.453125 0.134000000000000008 0.134000000000000008 1
0.2421875 0.453125 0.277000000000000024 0.277000000000000024 1
0.25 0.453125 0.0149999999999999994 0.0149999999999999994 1
0.2578125 0.453125 0.271000000000000019 0.271000000000000019 1
0.265625 0.453125 0.0309999999999999998 0.0309999999999999998 1
0.2734375 0.453125 0.251000000000000001 0.251000000000000001 1
0.28125 0.453125 0.308999999999999997 0.308999999999999997 1
0.2890625 0.453125 0.00300000000000000006 0.00300000000000000006 1
0.296875 0.453125 0.234999999999999987 0.234999999999999987 1
0.3046875 0.453125 0.165000000000000008 0.165000000000000008 1
0.3125 0.453125 0.277000000000000024 0.277000000000000024 1
0.3203125 0.453125 0.409999999999999976 0.409999999999999976 1
0.328125 0.453125 0.190000000000000002 0.190000000000000002 1
0.3359375 0.453125 0.183999999999999997 0.183999999999999997 1
0.34375 0.453125 0.00300000000000000006 0.00300000000000000006 1
0.3515625 0.453125 0.0800000000000000017 0.0800000000000000017 1
0.359375 0.453125 0.149999999999999994 0.149999999999999994 1
0.3671875 0.453125 0.409999999999999976 0.409999999999999976 1
0.375 0.453125 0.00300000000000000006 0.00300000000000000006 1
0.3828125 0.453125 0.0309999999999999998 0.0309999999999999998 1
0.390625 0.453125 0.20799999999999999 0.20799999999999999 1
0.3984375 0.453125 0.00300000000000000006 0.00300000000000000006 1
0.40625 0.453125 0.0719999999999999946 0.0719999999999999946 1
0.4140625 0.453125 0.00300000000000000006 0.00300000000000000006 1
0.421875 0.453125 0.471999999999999975 0.471999999999999975 1
0.4296875 0.453125 0.0240000000000000005 0.0240000000000000005 1
0.4375 0.453125 0.229000000000000009 0.229000000000000009 1
0.4453125 0.453125 0.190000000000000002 0.190000000000000002 1
0.453125 0.453125 0.0609999999999999987 0.0609999999999999987 1
0.4609375 0.453125 0.00300000000000000006 0.00300000000000000006 1
0.46875 0.453125 0.00300000000000000006 0.00300000000000000006 1
0.4765625 0.453125 0.381000000000000005 0.381000000000000005 1
0.484375 0.453125 0.305999999999999994 0.305999999999999994 1
0.4921875 0.453125 9.93900000000000006 9.93900000000000006 1
0.5 0.453125 0.154999999999999999 0.154999999999999999 1
0.5078125 0.453125 0.221000000000000002 0.221000000000000002 1
0.515625 0.453125 0.0609999999999999987 0.0609999999999999987 1
0.5234375 0.453125 0.23000000000000001 0.23000000000000001 1
0.53125 0.453125 0.0240000000000000005 0.0240000000000000005 1
0.5390625 0.453125 0.288999999999999979 0.288999999999999979 1
0.546875 0.453125 0.277000000000000024 0.277000000000000024 1
0.5546875 0.453125 0.0429999999999999966 0.0429999999999999966 1
0.5625 0.453125 0.228000000000000008 0.228000000000000008 1
0.5703125 0.453125 0.484999999999999987 0.484999999999999987 1
0.578125 0.453125 0.281999999999999973 0.281999999999999973 1
0.5859375 0.453125 0.104999999999999996 0.104999999999999996 1
0.59375 0.453125 0.586999999999999966 0.586999999999999966 1
0.6015625 0.453125 0.165000000000000008 0.165000000000000008 1
0.609375 0.453125 0.00300000000000000006 0.00300000000000000006 1
0.6171875 0.453125 0.149999999999999994 0.149999999999999994 1
0.625 0.453125 0.23000000000000001 0.23000000000000001 1
0.6328125 0.453125 0.076999999999999999 0.076999999999999999 1
0.640625 0.453125 0.0830000000000000043 0.0830000000000000043 1
0.6484375 0.453125 0.328000000000000014 0.328000000000000014 1
0.65625 0.453125 0.258000000000000007 0.258000000000000007 1
0.6640625 0.453125 0.416999999999999982 0.416999999999999982 1
0.671875 0.453125 0.166000000000000009 0.166000000000000009 1
0.6796875 0.453125 0.149999999999999994 0.149999999999999994 1
0.6875 0.453125 0.290999999999999981 0.290999999999999981 1
0.6953125 0.453125 0.320000000000000007 0.320000000000000007 1
0.703125 0.453125 0.403000000000000025 0.403000000000000025 1
0.7109375 0.453125 0.194000000000000006 0.194000000000000006 1
0.71875 0.453125 0.165000000000000008 0.165000000000000008 1
0.7265625 0.453125 0.409999999999999976 0.409999999999999976 1
0.734375 0.453125 0.202000000000000013 0.202000000000000013 1
0.7421875 0.453125 0.407999999999999974 0.407999999999999974 1
0.75 0.453125 0.380000000000000004 0.380000000000000004 1
0.7578125 0.453125 0.202000000000000013 0.202000000000000013 1
0.765625 0.453125 0.450000000000000011 0.450000000000000011 1
0.7734375 0.453125 0.234999999999999987 0.234999999999999987 1
0.78125 0.453125 0.0240000000000000005 0.0240000000000000005 1
0.7890625 0.453125 0.336000000000000021 0.336000000000000021 1
0.796875 0.453125 0.0140000000000000003 0.0140000000000000003 1
0.8046875 0.453125 0.184999999999999998 0.184999999999999998 1
0.8125 0.453125 0.00300000000000000006 0.00300000000000000006 1
0.8203125 0.453125 0.0240000000000000005 0.0240000000000000005 1
0.828125 0.453125 0.0240000000000000005 0.0240000000000000005 1
0.8359375 0.453125 0.190000000000000002 0.190000000000000002 1
0.84375 0.453125 0.190000000000000002 0.190000000000000002 1
0.8515625 0.453125 0.190000000000000002 0.190000000000000002 1
0.859375 0.453125 0.463000000000000023 0.463000000000000023 1
0.8671875 0.453125 0.392000000000000015 0.392000000000000015 1
0.875 0.453125 0.0309999999999999998 0.0309999999999999998 1
0.8828125 0.453125 0.0929999999999999993 0.0929999999999999993 1
0.890625 0.453125 0.17599999999999999 0.17599999999999999 1
0.8984375 0.453125 0.290999999999999981 0.290999999999999981 1
0.90625 0.453125 0.00300000000000000006 0.00300000000000000006 1
0.9140625 0.453125 0.0929999999999999993 0.0929999999999999993 1
0.921875 0.453125 0.142999999999999988 0.142999999999999988 1
0.9296875 0.453125 0.190000000000000002 0.190000000000000002 1
0.9375 0.453125 0.198000000000000009 0.198000000000000009 1
0.9453125 0.453125 0.394000000000000017 0.394000000000000017 1
0.953125 0.453125 0.373999999999999999 0.373999999999999999 1
0.9609375 0.453125 9.78200000000000003 9.78200000000000003 1
0.96875 0.453125 0.149999999999999994 0.149999999999999994 1
0.9765625 0.453125 9.99000000000000021 9.99000000000000021 1
0.984375 0.453125 0.125 0.125 1
0.9921875 0.453125 0.484999999999999987 0.484999999999999987 1
0 0.4609375 0.00300000000000000006 0.00300000000000000006 1
0.0078125 0.4609375 0.165000000000000008 0.165000000000000008 1
0.015625 0.4609375 0.277000000000000024 0.277000000000000024 1
0.0234375 0.4609375 0.142999999999999988 0.142999999999999988 1
0.03125 0.4609375 0.149999999999999994 0.149999999999999994 1
0.0390625 0.4609375 0.212999999999999995 0.212999999999999995 1
0.046875 0.4609375 0.16800000000000001 0.16800000000000001 1
0.0546875 0.4609375 0.757000000000000006 0.757000000000000006 1
0.0625 0.4609375 0.149999999999999994 0.149999999999999994 1
0.0703125 0.4609375 0.586999999999999966 0.586999999999999966 1
0.078125 0.4609375 0.120999999999999996 0.120999999999999996 1
0.0859375 0.4609375 0.245999999999999996 0.245999999999999996 1
0.09375 0.4609375 0.0929999999999999993 0.0929999999999999993 1
0.1015625 0.4609375 0.0309999999999999998 0.0309999999999999998 1
0.109375 0.4609375 0.291999999999999982 0.291999999999999982 1
0.1171875 0.4609375 0.149999999999999994 0.149999999999999994 1
0.125 0.4609375 0.165000000000000008 0.165000000000000008 1
0.1328125 0.4609375 0.00300000000000000006 0.00300000000000000006 1
0.140625 0.4609375 0.0309999999999999998 0.0309999999999999998 1
0.1484375 0.4609375 0.350999999999999979 0.350999999999999979 1
0.15625 0.4609375 0.198000000000000009 0.198000000000000009 1
0.1640625 0.4609375 0.256000000000000005 0.256000000000000005 1
0.171875 0.4609375 0.00300000000000000006 0.00300000000000000006 1
0.1796875 0.4609375 0.330000000000000016 0.330000000000000016 1
0.1875 0.4609375 0.0240000000000000005 0.0240000000000000005 1
0.1953125 0.4609375 0.381000000000000005 0.381000000000000005 1
0.203125 0.4609375 0.344999999999999973 0.344999999999999973 1
0.2109375 0.4609375 0.0929999999999999993 0.0929999999999999993 1
0.21875 0.4609375 0.23000000000000001 0.23000000000000001 1
0.2265625 0.4609375 0.190000000000000002 0.190000000000000002 1
0.234375 0.4609375 0.193000000000000005 0.193000000000000005 1
0.2421875 0.4609375 0.243999999999999995 0.243999999999999995 1
0.25 0.4609375 0.470999999999999974 0.470999999999999974 1
0.2578125 0.4609375 0 0 1
0.265625 0.4609375 0.125 0.125 1
0.2734375 0.4609375 0.0929999999999999993 0.0929999999999999993 1
0.28125 0.4609375 0.176999999999999991 0.176999999999999991 1
0.2890625 0.4609375 9.92800000000000082 9.92800000000000082 1
0.296875 0.4609375 0.290999999999999981 0.290999999999999981 1
0.3046875 0.4609375 0.165000000000000008 0.165000000000000008 1
0.3125 0.4609375 0.183999999999999997 0.183999999999999997 1
0.3203125 0.4609375 0.424999999999999989 0.424999999999999989 1
0.328125 0.4609375 0.381000000000000005 0.381000000000000005 1
0.3359375 0.4609375 0.234999999999999987 0.234999999999999987 1
0.34375 0.4609375 0.542000000000000037 0.542000000000000037 1
0.3515625 0.4609375 0.0609999999999999987 0.0609999999999999987 1
0.359375 0.4609375 0.33500000000000002 0.33500000000000002 1
0.3671875 0.4609375 0.619999999999999996 0.619999999999999996 1
0.375 0.4609375 0.190000000000000002 0.190000000000000002 1
0.3828125 0.4609375 0.25 0.25 1
0.390625 0.4609375 0.149999999999999994 0.149999999999999994 1
0.3984375 0.4609375 0.0929999999999999993 0.0929999999999999993 1
0.40625 0.4609375 0.0240000000000000005 0.0240000000000000005 1
0.4140625 0.4609375 0.376000000000000001 0.376000000000000001 1
0.421875 0.4609375 0.368999999999999995 0.368999999999999995 1
0.4296875 0.4609375 0.232000000000000012 0.232000000000000012 1
0.4375 0.4609375 0.52200000000000002 0.52200000000000002 1
0.4453125 0.4609375 0.0850000000000000061 0.0850000000000000061 1
0.453125 0.4609375 0.123999999999999999 0.123999999999999999 1
0.4609375 0.4609375 0.267000000000000015 0.267000000000000015 1
0.46875 0.4609375 0.0309999999999999998 0.0309999999999999998 1
0.4765625 0.4609375 0.145999999999999991 0.145999999999999991 1
0.484375 0.4609375 0.165000000000000008 0.165000000000000008 1
0.4921875 0.4609375 0.483999999999999986 0.483999999999999986 1
0.5 0.4609375 0.115000000000000005 0.115000000000000005 1
0.5078125 0.4609375 0.0609999999999999987 0.0609999999999999987 1
0.515625 0.4609375 0.258000000000000007 0.258000000000000007 1
0.5234375 0.4609375 0.353999999999999981 0.353999999999999981 1
0.53125 0.4609375 0.00300000000000000006 0.00300000000000000006 1
0.5390625 0.4609375 0.20799999999999999 0.20799999999999999 1
0.546875 0.4609375 0.234999999999999987 0.234999999999999987 1
0.5546875 0.4609375 0.719999999999999973 0.719999999999999973 1
0.5625 0.4609375 0.432999999999999996 0.432999999999999996 1
0.5703125 0.4609375 0.196000000000000008 0.196000000000000008 1
0.578125 0.4609375 0.409999999999999976 0.409999999999999976 1
0.5859375 0.4609375 0.135000000000000009 0.135000000000000009 1
0.59375 0.4609375 0.0680000000000000049 0.0680000000000000049 1
0.6015625 0.4609375 0.382000000000000006 0.382000000000000006 1
0.609375 0.4609375 0.409999999999999976 0.409999999999999976 1
0.6171875 0.4609375 0.149999999999999994 0.149999999999999994 1
0.625 0.4609375 0.550000000000000044 0.550000000000000044 1
0.6328125 0.4609375 0.135000000000000009 0.135000000000000009 1
0.640625 0.4609375 0.0570000000000000021 0.0570000000000000021 1
0.6484375 0.4609375 0.312 0.312 1
0.65625 0.4609375 0.406000000000000028 0.406000000000000028 1
0.6640625 0.4609375 0.277000000000000024 0.277000000000000024 1
0.671875 0.4609375 0.234999999999999987 0.234999999999999987 1
0.6796875 0.4609375 0.120999999999999996 0.120999999999999996 1
0.6875 0.4609375 0.00300000000000000006 0.00300000000000000006 1
0.6953125 0.4609375 0.194000000000000006 0.194000000000000006 1
0.703125 0.4609375 0.00300000000000000006 0.00300000000000000006 1
0.7109375 0.4609375 0.23000000000000001 0.23000000000000001 1
0.71875 0.4609375 0.260000000000000009 0.260000000000000009 1
0.7265625 0.4609375 0.234999999999999987 0.234999999999999987 1
0.734375 0.4609375 0.331000000000000016 0.331000000000000016 1
0.7421875 0.4609375 0.212999999999999995 0.212999999999999995 1
0.75 0.4609375 0.419999999999999984 0.419999999999999984 1
0.7578125 0.4609375 0.277000000000000024 0.277000000000000024 1
0.765625 0.4609375 0.234999999999999987 0.234999999999999987 1
0.7734375 0.4609375 0.17599999999999999 0.17599999999999999 1
0.78125 0.4609375 0.277000000000000024 0.277000000000000024 1
0.7890625 0.4609375 0.165000000000000008 0.165000000000000008 1
0.796875 0.4609375 0.172999999999999987 0.172999999999999987 1
0.8046875 0.4609375 0.358999999999999986 0.358999999999999986 1
0.8125 0.4609375 0.00300000000000000006 0.00300000000000000006 1
0.8203125 0.4609375 0.00300000000000000006 0.00300000000000000006 1
0.828125 0.4609375 0.0700000000000000067 0.0700000000000000067 1
0.8359375 0.4609375 0.233000000000000013 0.233000000000000013 1
0.84375 0.4609375 0.0609999999999999987 0.0609999999999999987 1
0.8515625 0.4609375 0.149999999999999994 0.149999999999999994 1
0.859375 0.4609375 0.0269999999999999997 0.0269999999999999997 1
0.8671875 0.4609375 0.0459999999999999992 0.0459999999999999992 1
0.875 0.4609375 0.373999999999999999 0.373999999999999999 1
0.8828125 0.4609375 0.444000000000000006 0.444000000000000006 1
0.890625 0.4609375 0.306999999999999995 0.306999999999999995 1
0.8984375 0.4609375 0.223000000000000004 0.223000000000000004 1
0.90625 0.4609375 0.157000000000000001 0.157000000000000001 1
0.9140625 0.4609375 0.00300000000000000006 0.00300000000000000006 1
0.921875 0.4609375 0.165000000000000008 0.165000000000000008 1
0.9296875 0.4609375 0.381000000000000005 0.381000000000000005 1
0.9375 0.4609375 0.426999999999999991 0.426999999999999991 1
0.9453125 0.4609375 0.00300000000000000006 0.00300000000000000006 1
0.953125 0.4609375 0.205999999999999989 0.205999999999999989 1
0.9609375 0.4609375 0.0609999999999999987 0.0609999999999999987 1
0.96875 0.4609375 0.165000000000000008 0.165000000000000008 1
0.9765625 0.4609375 0.0609999999999999987 0.0609999999999999987 1
0.984375 0.4609375 0.0729999999999999954 0.0729999999999999954 1
0.9921875 0.4609375 0.165000000000000008 0.165000000000000008 1
0 0.46875 0.00300000000000000006 0.00300000000000000006 1
0.0078125 0.46875 0.301999999999999991 0.301999999999999991 1
0.015625 0.46875 0.115000000000000005 0.115000000000000005 1
0.0234375 0.46875 0.507000000000000006 0.507000000000000006 1
0.03125 0.46875 0.301999999999999991 0.301999999999999991 1
0.0390625 0.46875 0.23000000000000001 0.23000000000000001 1
0.046875 0.46875 0.165000000000000008 0.165000000000000008 1
0.0546875 0.46875 0.181999999999999995 0.181999999999999995 1
0.0625 0.46875 0.190000000000000002 0.190000000000000002 1
0.0703125 0.46875 0.165000000000000008 0.165000000000000008 1
0.078125 0.46875 0.642000000000000015 0.642000000000000015 1
0.0859375 0.46875 0.0140000000000000003 0.0140000000000000003 1
0.09375 0.46875 0.190000000000000002 0.190000000000000002 1
0.1015625 0.46875 0.234999999999999987 0.234999999999999987 1
0.109375 0.46875 0.16700000000000001 0.16700000000000001 1
0.1171875 0.46875 0.432999999999999996 0.432999999999999996 1
0.125 0.46875 0.225000000000000006 0.225000000000000006 1
0.1328125 0.46875 0.0240000000000000005 0.0240000000000000005 1
0.140625 0.46875 0.0240000000000000005 0.0240000000000000005 1
0.1484375 0.46875 0.156 0.156 1
0.15625 0.46875 0.497999999999999998 0.497999999999999998 1
0.1640625 0.46875 0 0 1
0.171875 0.46875 0.312 0.312 1
0.1796875 0.46875 0.0680000000000000049 0.0680000000000000049 1
0.1875 0.46875 0.190000000000000002 0.190000000000000002 1
0.1953125 0.46875 0.0680000000000000049 0.0680000000000000049 1
0.203125 0.46875 0.316000000000000003 0.316000000000000003 1
0.2109375 0.46875 0.0929999999999999993 0.0929999999999999993 1
0.21875 0.46875 0.134000000000000008 0.134000000000000008 1
0.2265625 0.46875 0.00300000000000000006 0.00300000000000000006 1
0.234375 0.46875 0.0149999999999999994 0.0149999999999999994 1
0.2421875 0.46875 0.381000000000000005 0.381000000000000005 1
0.25 0.46875 0.149999999999999994 0.149999999999999994 1
0.2578125 0.46875 0.0609999999999999987 0.0609999999999999987 1
0.265625 0.46875 0.171000000000000013 0.171000000000000013 1
0.2734375 0.46875 0.232000000000000012 0.232000000000000012 1
0.28125 0.46875 0.643000000000000016 0.643000000000000016 1
0.2890625 0.46875 0.5 0.5 1
0.296875 0.46875 0.198000000000000009 0.198000000000000009 1
0.3046875 0.46875 0.178999999999999992 0.178999999999999992 1
0.3125 0.46875 0.277000000000000024 0.277000000000000024 1
0.3203125 0.46875 0.290999999999999981 0.290999999999999981 1
0.328125 0.46875 0.234999999999999987 0.234999999999999987 1
0.3359375 0.46875 0.234000000000000014 0.234000000000000014 1
0.34375 0.46875 0.190000000000000002 0.190000000000000002 1
0.3515625 0.46875 0.149999999999999994 0.149999999999999994 1
0.359375 0.46875 0.380000000000000004 0.380000000000000004 1
0.3671875 0.46875 0.259000000000000008 0.259000000000000008 1
0.375 0.46875 0.0240000000000000005 0.0240000000000000005 1
0.3828125 0.46875 0.16800000000000001 0.16800000000000001 1
0.390625 0.46875 0.357999999999999985 0.357999999999999985 1
0.3984375 0.46875 0.381000000000000005 0.381000000000000005 1
0.40625 0.46875 0.190000000000000002 0.190000000000000002 1
0.4140625 0.46875 0.00300000000000000006 0.00300000000000000006 1
0.421875 0.46875 0.229000000000000009 0.229000000000000009 1
0.4296875 0.46875 0.227000000000000007 0.227000000000000007 1
0.4375 0.46875 0.165000000000000008 0.165000000000000008 1
0.4453125 0.46875 0.115000000000000005 0.115000000000000005 1
0.453125 0.46875 0.479999999999999982 0.479999999999999982 1
0.4609375 0.46875 0.439000000000000001 0.439000000000000001 1
0.46875 0.46875 0.234999999999999987 0.234999999999999987 1
0.4765625 0.46875 0.0309999999999999998 0.0309999999999999998 1
0.484375 0.46875 0.409999999999999976 0.409999999999999976 1
0.4921875 0.46875 0.493999999999999995 0.493999999999999995 1
0.5 0.46875 0.165000000000000008 0.165000000000000008 1
0.5078125 0.46875 0.381000000000000005 0.381000000000000005 1
0.515625 0.46875 0.0449999999999999983 0.0449999999999999983 1
0.5234375 0.46875 0.336000000000000021 0.336000000000000021 1
0.53125 0.46875 0.586999999999999966 0.586999999999999966 1
0.5390625 0.46875 0.378000000000000003 0.378000000000000003 1
0.546875 0.46875 0.0929999999999999993 0.0929999999999999993 1
0.5546875 0.46875 0.158000000000000002 0.158000000000000002 1
0.5625 0.46875 0.0309999999999999998 0.0309999999999999998 1
0.5703125 0.46875 0.411999999999999977 0.411999999999999977 1
0.578125 0.46875 0.00300000000000000006 0.00300000000000000006 1
0.5859375 0.46875 0.00300000000000000006 0.00300000000000000006 1
0.59375 0.46875 0.234999999999999987 0.234999999999999987 1
0.6015625 0.46875 0.492999999999999994 0.492999999999999994 1
0.609375 0.46875 0.277000000000000024 0.277000000000000024 1
0.6171875 0.46875 0.0700000000000000067 0.0700000000000000067 1
0.625 0.46875 0.312 0.312 1
0.6328125 0.46875 0.410999999999999976 0.410999999999999976 1
0.640625 0.46875 0.0929999999999999993 0.0929999999999999993 1
0.6484375 0.46875 0 0 1
0.65625 0.46875 0.19900000000000001 0.19900000000000001 1
0.6640625 0.46875 0.0240000000000000005 0.0240000000000000005 1
0.671875 0.46875 0.0240000000000000005 0.0240000000000000005 1
0.6796875 0.46875 0.403000000000000025 0.403000000000000025 1
0.6875 0.46875 0.00300000000000000006 0.00300000000000000006 1
0.6953125 0.46875 0.431999999999999995 0.431999999999999995 1
0.703125 0.46875 0.232000000000000012 0.232000000000000012 1
0.7109375 0.46875 0.410999999999999976 0.410999999999999976 1
0.71875 0.46875 0.191000000000000003 0.191000000000000003 1
0.7265625 0.46875 0.257000000000000006 0.257000000000000006 1
0.734375 0.46875 0.381000000000000005 0.381000000000000005 1
0.7421875 0.46875 0.640000000000000013 0.640000000000000013 1
0.75 0.46875 0.00300000000000000006 0.00300000000000000006 1
0.7578125 0.46875 0.212999999999999995 0.212999999999999995 1
0.765625 0.46875 0.128000000000000003 0.128000000000000003 1
0.7734375 0.46875 0.234999999999999987 0.234999999999999987 1
0.78125 0.46875 0.429999999999999993 0.429999999999999993 1
0.7890625 0.46875 0.190000000000000002 0.190000000000000002 1
0.796875 0.46875 0.23899999999999999 0.23899999999999999 1
0.8046875 0.46875 0.643000000000000016 0.643000000000000016 1
0.8125 0.46875 0.110000000000000001 0.110000000000000001 1
0.8203125 0.46875 0.189000000000000001 0.189000000000000001 1
0.828125 0.46875 0.381000000000000005 0.381000000000000005 1
0.8359375 0.46875 0.543000000000000038 0.543000000000000038 1
0.84375 0.46875 0.149999999999999994 0.149999999999999994 1
0.8515625 0.46875 0.23000000000000001 0.23000000000000001 1
0.859375 0.46875 0.268000000000000016 0.268000000000000016 1
0.8671875 0.46875 0.190000000000000002 0.190000000000000002 1
0.875 0.46875 0.389000000000000012 0.389000000000000012 1
0.8828125 0.46875 0.190000000000000002 0.190000000000000002 1
0.890625 0.46875 0 0 1
0.8984375 0.46875 0.149999999999999994 0.149999999999999994 1
0.90625 0.46875 0.0309999999999999998 0.0309999999999999998 1
0.9140625 0.46875 0.280000000000000027 0.280000000000000027 1
0.921875 0.46875 0.337000000000000022 0.337000000000000022 1
0.9296875 0.46875 0.317000000000000004 0.317000000000000004 1
0.9375 0.46875 0.0240000000000000005 0.0240000000000000005 1
0.9453125 0.46875 0.00300000000000000006 0.00300000000000000006 1
0.953125 0.46875 0.315000000000000002 0.315000000000000002 1
0.9609375 0.46875 9.93699999999999939 9.93699999999999939 1
0.96875 0.46875 0.434999999999999998 0.434999999999999998 1
0.9765625 0.46875 0.33500000000000002 0.33500000000000002 1
0.984375 0.46875 0.198000000000000009 0.198000000000000009 1
0.9921875 0.46875 0.0240000000000000005 0.0240000000000000005 1
0 0.4765625 0.506000000000000005 0.506000000000000005 1
0.0078125 0.4765625 0.0189999999999999995 0.0189999999999999995 1
0.015625 0.4765625 0.301999999999999991 0.301999999999999991 1
0.0234375 0.4765625 0.533000000000000029 0.533000000000000029 1
0.03125 0.4765625 0.345999999999999974 0.345999999999999974 1
0.0390625 0.4765625 0.293999999999999984 0.293999999999999984 1
0.046875 0.4765625 0.0240000000000000005 0.0240000000000000005 1
0.0546875 0.4765625 0.457000000000000017 0.457000000000000017 1
0.0625 0.4765625 0.00300000000000000006 0.00300000000000000006 1
0.0703125 0.4765625 0 0 1
0.078125 0.4765625 0.190000000000000002 0.190000000000000002 1
0.0859375 0.4765625 0.166000000000000009 0.166000000000000009 1
0.09375 0.4765625 0.165000000000000008 0.165000000000000008 1
0.1015625 0.4765625 0.101999999999999993 0.101999999999999993 1
0.109375 0.4765625 0.389000000000000012 0.389000000000000012 1
0.1171875 0.4765625 0.299999999999999989 0.299999999999999989 1
0.125 0.4765625 0.00300000000000000006 0.00300000000000000006 1
0.1328125 0.4765625 0.00300000000000000006 0.00300000000000000006 1
0.140625 0.4765625 0.395000000000000018 0.395000000000000018 1
0.1484375 0.4765625 0.253000000000000003 0.253000000000000003 1
0.15625 0.4765625 0.0859999999999999931 0.0859999999999999931 1
0.1640625 0.4765625 9.74699999999999989 9.74699999999999989 1
0.171875 0.4765625 0.336000000000000021 0.336000000000000021 1
0.1796875 0.4765625 0.0299999999999999989 0.0299999999999999989 1
0.1875 0.4765625 0.0859999999999999931 0.0859999999999999931 1
0.1953125 0.4765625 0.198000000000000009 0.198000000000000009 1
0.203125 0.4765625 0.234999999999999987 0.234999999999999987 1
0.2109375 0.4765625 9.87899999999999956 9.87899999999999956 1
0.21875 0.4765625 0.646000000000000019 0.646000000000000019 1
0.2265625 0.4765625 0.202000000000000013 0.202000000000000013 1
0.234375 0.4765625 0.46000000000000002 0.46000000000000002 1
0.2421875 0.4765625 0.121999999999999997 0.121999999999999997 1
0.25 0.4765625 0.504000000000000004 0.504000000000000004 1
0.2578125 0.4765625 0.183999999999999997 0.183999999999999997 1
0.265625 0.4765625 0.208999999999999991 0.208999999999999991 1
0.2734375 0.4765625 0.0309999999999999998 0.0309999999999999998 1
0.28125 0.4765625 0.23899999999999999 0.23899999999999999 1
0.2890625 0.4765625 0.277000000000000024 0.277000000000000024 1
0.296875 0.4765625 0.338000000000000023 0.338000000000000023 1
0.3046875 0.4765625 0.304999999999999993 0.304999999999999993 1
0.3125 0.4765625 0.330000000000000016 0.330000000000000016 1
0.3203125 0.4765625 0.190000000000000002 0.190000000000000002 1
0.328125 0.4765625 0.0929999999999999993 0.0929999999999999993 1
0.3359375 0.4765625 0.190000000000000002 0.190000000000000002 1
0.34375 0.4765625 0.0929999999999999993 0.0929999999999999993 1
0.3515625 0.4765625 0.00300000000000000006 0.00300000000000000006 1
0.359375 0.4765625 0.342000000000000026 0.342000000000000026 1
0.3671875 0.4765625 0.00300000000000000006 0.00300000000000000006 1
0.375 0.4765625 0.220000000000000001 0.220000000000000001 1
0.3828125 0.4765625 0.181999999999999995 0.181999999999999995 1
0.390625 0.4765625 0.149999999999999994 0.149999999999999994 1
0.3984375 0.4765625 0.587999999999999967 0.587999999999999967 1
0.40625 0.4765625 0.0940000000000000002 0.0940000000000000002 1
0.4140625 0.4765625 0.141999999999999987 0.141999999999999987 1
0.421875 0.4765625 0.190000000000000002 0.190000000000000002 1
0.4296875 0.4765625 0.381000000000000005 0.381000000000000005 1
0.4375 0.4765625 0.190000000000000002 0.190000000000000002 1
0.4453125 0.4765625 0.228000000000000008 0.228000000000000008 1
0.453125 0.4765625 0.0609999999999999987 0.0609999999999999987 1
0.4609375 0.4765625 0.115000000000000005 0.115000000000000005 1
0.46875 0.4765625 0.371999999999999997 0.371999999999999997 1
0.4765625 0.4765625 0.26100000000000001 0.26100000000000001 1
0.484375 0.4765625 0.381000000000000005 0.381000000000000005 1
0.4921875 0.4765625 0.00300000000000000006 0.00300000000000000006 1
0.5 0.4765625 0.0609999999999999987 0.0609999999999999987 1
0.5078125 0.4765625 0.381000000000000005 0.381000000000000005 1
0.515625 0.4765625 0.115000000000000005 0.115000000000000005 1
0.5234375 0.4765625 0.302999999999999992 0.302999999999999992 1
0.53125 0.4765625 0.44900000000000001 0.44900000000000001 1
0.5390625 0.4765625 0.586999999999999966 0.586999999999999966 1
0.546875 0.4765625 0.212999999999999995 0.212999999999999995 1
0.5546875 0.4765625 0.279000000000000026 0.279000000000000026 1
0.5625 0.4765625 0.131000000000000005 0.131000000000000005 1
0.5703125 0.4765625 0.482999999999999985 0.482999999999999985 1
0.578125 0.4765625 0.392000000000000015 0.392000000000000015 1
0.5859375 0.4765625 0.401000000000000023 0.401000000000000023 1
0.59375 0.4765625 0.0240000000000000005 0.0240000000000000005 1
0.6015625 0.4765625 0.456000000000000016 0.456000000000000016 1
0.609375 0.4765625 0.248999999999999999 0.248999999999999999 1
0.6171875 0.4765625 0.381000000000000005 0.381000000000000005 1
0.625 0.4765625 0.190000000000000002 0.190000000000000002 1
0.6328125 0.4765625 0.152999999999999997 0.152999999999999997 1
0.640625 0.4765625 0.102999999999999994 0.102999999999999994 1
0.6484375 0.4765625 0.409999999999999976 0.409999999999999976 1
0.65625 0.4765625 0.0609999999999999987 0.0609999999999999987 1
0.6640625 0.4765625 0.458000000000000018 0.458000000000000018 1
0.671875 0.4765625 0.00300000000000000006 0.00300000000000000006 1
0.6796875 0.4765625 0.134000000000000008 0.134000000000000008 1
0.6875 0.4765625 0.387000000000000011 0.387000000000000011 1
0.6953125 0.4765625 0.0690000000000000058 0.0690000000000000058 1
0.703125 0.4765625 0.096000000000000002 0.096000000000000002 1
0.7109375 0.4765625 0.293999999999999984 0.293999999999999984 1
0.71875 0.4765625 0.437 0.437 1
0.7265625 0.4765625 0.423999999999999988 0.423999999999999988 1
0.734375 0.4765625 0.303999999999999992 0.303999999999999992 1
0.7421875 0.4765625 0.0909999999999999976 0.0909999999999999976 1
0.75 0.4765625 0.00300000000000000006 0.00300000000000000006 1
0.7578125 0.4765625 0.0240000000000000005 0.0240000000000000005 1
0.765625 0.4765625 0.00300000000000000006 0.00300000000000000006 1
0.7734375 0.4765625 0.23000000000000001 0.23000000000000001 1
0.78125 0.4765625 0.212999999999999995 0.212999999999999995 1
0.7890625 0.4765625 0.125 0.125 1
0.796875 0.4765625 0.139000000000000012 0.139000000000000012 1
0.8046875 0.4765625 0.111000000000000001 0.111000000000000001 1
0.8125 0.4765625 0.542000000000000037 0.542000000000000037 1
0.8203125 0.4765625 0.113000000000000003 0.113000000000000003 1
0.828125 0.4765625 0.389000000000000012 0.389000000000000012 1
0.8359375 0.4765625 0.0929999999999999993 0.0929999999999999993 1
0.84375 0.4765625 0.00300000000000000006 0.00300000000000000006 1
0.8515625 0.4765625 0.00300000000000000006 0.00300000000000000006 1
0.859375 0.4765625 0.427999999999999992 0.427999999999999992 1
0.8671875 0.4765625 0 0 1
0.875 0.4765625 0.103999999999999995 0.103999999999999995 1
0.8828125 0.4765625 0.190000000000000002 0.190000000000000002 1
0.890625 0.4765625 0.190000000000000002 0.190000000000000002 1
0.8984375 0.4765625 0.165000000000000008 0.165000000000000008 1
0.90625 0.4765625 0.234999999999999987 0.234999999999999987 1
0.9140625 0.4765625 0.542000000000000037 0.542000000000000037 1
0.921875 0.4765625 0.190000000000000002 0.190000000000000002 1
0.9296875 0.4765625 0.0240000000000000005 0.0240000000000000005 1
0.9375 0.4765625 0.164000000000000007 0.164000000000000007 1
0.9453125 0.4765625 0.467000000000000026 0.467000000000000026 1
0.953125 0.4765625 0.0149999999999999994 0.0149999999999999994 1
0.9609375 0.4765625 0.212999999999999995 0.212999999999999995 1
0.96875 0.4765625 0.290999999999999981 0.290999999999999981 1
0.9765625 0.4765625 0.252000000000000002 0.252000000000000002 1
0.984375 0.4765625 0.412999999999999978 0.412999999999999978 1
0.9921875 0.4765625 0.490999999999999992 0.490999999999999992 1
0 0.484375 0.190000000000000002 0.190000000000000002 1
0.0078125 0.484375 0.0149999999999999994 0.0149999999999999994 1
0.015625 0.484375 0.251000000000000001 0.251000000000000001 1
0.0234375 0.484375 0.326000000000000012 0.326000000000000012 1
0.03125 0.484375 0.204999999999999988 0.204999999999999988 1
0.0390625 0.484375 0.381000000000000005 0.381000000000000005 1
0.046875 0.484375 0.165000000000000008 0.165000000000000008 1
0.0546875 0.484375 0.429999999999999993 0.429999999999999993 1
0.0625 0.484375 0.20799999999999999 0.20799999999999999 1
0.0703125 0.484375 0.0309999999999999998 0.0309999999999999998 1
0.078125 0.484375 0.302999999999999992 0.302999999999999992 1
0.0859375 0.484375 0.212999999999999995 0.212999999999999995 1
0.09375 0.484375 0.190000000000000002 0.190000000000000002 1
0.1015625 0.484375 0.23000000000000001 0.23000000000000001 1
0.109375 0.484375 0.39700000000000002 0.39700000000000002 1
0.1171875 0.484375 0.280000000000000027 0.280000000000000027 1
0.125 0.484375 0.312 0.312 1
0.1328125 0.484375 0.149999999999999994 0.149999999999999994 1
0.140625 0.484375 0 0 1
0.1484375 0.484375 0.370999999999999996 0.370999999999999996 1
0.15625 0.484375 0.23000000000000001 0.23000000000000001 1
0.1640625 0.484375 0.23899999999999999 0.23899999999999999 1
0.171875 0.484375 0.076999999999999999 0.076999999999999999 1
0.1796875 0.484375 0.312 0.312 1
0.1875 0.484375 0.234999999999999987 0.234999999999999987 1
0.1953125 0.484375 0.248999999999999999 0.248999999999999999 1
0.203125 0.484375 0.277000000000000024 0.277000000000000024 1
0.2109375 0.484375 0.118999999999999995 0.118999999999999995 1
0.21875 0.484375 0.381000000000000005 0.381000000000000005 1
0.2265625 0.484375 9.78999999999999915 9.78999999999999915 1
0.234375 0.484375 0.00300000000000000006 0.00300000000000000006 1
0.2421875 0.484375 0.269000000000000017 0.269000000000000017 1
0.25 0.484375 0.212999999999999995 0.212999999999999995 1
0.2578125 0.484375 0.270000000000000018 0.270000000000000018 1
0.265625 0.484375 0.312 0.312 1
0.2734375 0.484375 0.458000000000000018 0.458000000000000018 1
0.28125 0.484375 0.290999999999999981 0.290999999999999981 1
0.2890625 0.484375 0.234999999999999987 0.234999999999999987 1
0.296875 0.484375 0.149999999999999994 0.149999999999999994 1
0.3046875 0.484375 0.00300000000000000006 0.00300000000000000006 1
0.3125 0.484375 0 0 1
0.3203125 0.484375 0.115000000000000005 0.115000000000000005 1
0.328125 0.484375 0.234999999999999987 0.234999999999999987 1
0.3359375 0.484375 0.331000000000000016 0.331000000000000016 1
0.34375 0.484375 0.36399999999999999 0.36399999999999999 1
0.3515625 0.484375 0.00300000000000000006 0.00300000000000000006 1
0.359375 0.484375 0.165000000000000008 0.165000000000000008 1
0.3671875 0.484375 9.95899999999999963 9.95899999999999963 1
0.375 0.484375 0.190000000000000002 0.190000000000000002 1
0.3828125 0.484375 0.0660000000000000031 0.0660000000000000031 1
0.390625 0.484375 0.26100000000000001 0.26100000000000001 1
0.3984375 0.484375 0.672000000000000042 0.672000000000000042 1
0.40625 0.484375 0.296999999999999986 0.296999999999999986 1
0.4140625 0.484375 0.00300000000000000006 0.00300000000000000006 1
0.421875 0.484375 0.51100000000000001 0.51100000000000001 1
0.4296875 0.484375 0.149999999999999994 0.149999999999999994 1
0.4375 0.484375 0.0680000000000000049 0.0680000000000000049 1
0.4453125 0.484375 0.336000000000000021 0.336000000000000021 1
0.453125 0.484375 0.373999999999999999 0.373999999999999999 1
0.4609375 0.484375 0.366999999999999993 0.366999999999999993 1
0.46875 0.484375 0.157000000000000001 0.157000000000000001 1
0.4765625 0.484375 0.0609999999999999987 0.0609999999999999987 1
0.484375 0.484375 0.234999999999999987 0.234999999999999987 1
0.4921875 0.484375 0.446000000000000008 0.446000000000000008 1
0.5 0.484375 0.312 0.312 1
0.5078125 0.484375 0.312 0.312 1
0.515625 0.484375 0.288999999999999979 0.288999999999999979 1
0.5234375 0.484375 0 0 1
0.53125 0.484375 0.429999999999999993 0.429999999999999993 1
0.5390625 0.484375 0.277000000000000024 0.277000000000000024 1
0.546875 0.484375 0.0929999999999999993 0.0929999999999999993 1
0.5546875 0.484375 0.399000000000000021 0.399000000000000021 1
0.5625 0.484375 0.150999999999999995 0.150999999999999995 1
0.5703125 0.484375 0.112000000000000002 0.112000000000000002 1
0.578125 0.484375 0.139000000000000012 0.139000000000000012 1
0.5859375 0.484375 0.188 0.188 1
0.59375 0.484375 0.165000000000000008 0.165000000000000008 1
0.6015625 0.484375 0.277000000000000024 0.277000000000000024 1
0.609375 0.484375 0.00300000000000000006 0.00300000000000000006 1
0.6171875 0.484375 0.165000000000000008 0.165000000000000008 1
0.625 0.484375 0.190000000000000002 0.190000000000000002 1
0.6328125 0.484375 0.292999999999999983 0.292999999999999983 1
0.640625 0.484375 0.190000000000000002 0.190000000000000002 1
0.6484375 0.484375 0.00300000000000000006 0.00300000000000000006 1
0.65625 0.484375 0.0609999999999999987 0.0609999999999999987 1
0.6640625 0.484375 0.165000000000000008 0.165000000000000008 1
0.671875 0.484375 0.400000000000000022 0.400000000000000022 1
0.6796875 0.484375 0.685000000000000053 0.685000000000000053 1
0.6875 0.484375 0.429999999999999993 0.429999999999999993 1
0.6953125 0.484375 0.234000000000000014 0.234000000000000014 1
0.703125 0.484375 0.277000000000000024 0.277000000000000024 1
0.7109375 0.484375 0.234999999999999987 0.234999999999999987 1
0.71875 0.484375 0 0 1
0.7265625 0.484375 0.183999999999999997 0.183999999999999997 1
0.734375 0.484375 0.165000000000000008 0.165000000000000008 1
0.7421875 0.484375 0.198000000000000009 0.198000000000000009 1
0.75 0.484375 0.182999999999999996 0.182999999999999996 1
0.7578125 0.484375 0.171999999999999986 0.171999999999999986 1
0.765625 0.484375 0.44900000000000001 0.44900000000000001 1
0.7734375 0.484375 0.151999999999999996 0.151999999999999996 1
0.78125 0.484375 0.149999999999999994 0.149999999999999994 1
0.7890625 0.484375 0.214999999999999997 0.214999999999999997 1
