ply
format ascii 1.0
element vertex 831
property double x
property double y
property double z
property double depth
property double albedo
end_header
0.7109375 0.3671875 9.95700000000000074 9.95700000000000074 1
0.71875 0.3671875 0.00300000000000000006 0.00300000000000000006 1
0.7265625 0.3671875 0.0240000000000000005 0.0240000000000000005 1
0.734375 0.3671875 0.0240000000000000005 0.0240000000000000005 1
0.7421875 0.3671875 0.152999999999999997 0.152999999999999997 1
0.75 0.3671875 0.117999999999999994 0.117999999999999994 1
0.7578125 0.3671875 0.00300000000000000006 0.00300000000000000006 1
0.765625 0.3671875 0 0 1
0.7734375 0.3671875 0.0929999999999999993 0.0929999999999999993 1
0.78125 0.3671875 0 0 1
0.7890625 0.3671875 0.23000000000000001 0.23000000000000001 1
0.796875 0.3671875 0.109 0.109 1
0.8046875 0.3671875 9.93099999999999916 9.93099999999999916 1
0.8125 0.3671875 9.78200000000000003 9.78200000000000003 1
0.8203125 0.3671875 0.0240000000000000005 0.0240000000000000005 1
0.828125 0.3671875 0.179999999999999993 0.179999999999999993 1
0.8359375 0.3671875 0.0240000000000000005 0.0240000000000000005 1
0.84375 0.3671875 9.95800000000000018 9.95800000000000018 1
0.8515625 0.3671875 0.280000000000000027 0.280000000000000027 1
0.859375 0.3671875 0.0309999999999999998 0.0309999999999999998 1
0.8671875 0.3671875 0.00300000000000000006 0.00300000000000000006 1
0.875 0.3671875 9.74600000000000044 9.74600000000000044 1
0.8828125 0.3671875 0.222000000000000003 0.222000000000000003 1
0.890625 0.3671875 0 0 1
0.8984375 0.3671875 0.101000000000000006 0.101000000000000006 1
0.90625 0.3671875 0.0189999999999999995 0.0189999999999999995 1
0.9140625 0.3671875 9.74200000000000088 9.74200000000000088 1
0.921875 0.3671875 9.9269999999999996 9.9269999999999996 1
0.9296875 0.3671875 0.0700000000000000067 0.0700000000000000067 1
0.9375 0.3671875 9.74200000000000088 9.74200000000000088 1
0.9453125 0.3671875 9.80300000000000082 9.80300000000000082 1
0.953125 0.3671875 0.0240000000000000005 0.0240000000000000005 1
0.9609375 0.3671875 0.0219999999999999987 0.0219999999999999987 1
0.96875 0.3671875 0 0 1
0.9765625 0.3671875 9.9269999999999996 9.9269999999999996 1
0.984375 0.3671875 0 0 1
0.9921875 0.3671875 9.90499999999999936 9.90499999999999936 1
0 0.375 9.99399999999999977 9.99399999999999977 1
0.0078125 0.375 0.237999999999999989 0.237999999999999989 1
0.015625 0.375 0.0240000000000000005 0.0240000000000000005 1
0.0234375 0.375 0.0240000000000000005 0.0240000000000000005 1
0.03125 0.375 0.165000000000000008 0.165000000000000008 1
0.0390625 0.375 0 0 1
0.046875 0.375 9.65499999999999936 9.65499999999999936 1
0.0546875 0.375 9.8019999999999996 9.8019999999999996 1
0.0625 0.375 0.290999999999999981 0.290999999999999981 1
0.0703125 0.375 0.0240000000000000005 0.0240000000000000005 1
0.078125 0.375 0.165000000000000008 0.165000000000000008 1
0.0859375 0.375 0 0 1
0.09375 0.375 0.0240000000000000005 0.0240000000000000005 1
0.1015625 0.375 0.0929999999999999993 0.0929999999999999993 1
0.109375 0.375 9.8100000000000005 9.8100000000000005 1
0.1171875 0.375 0 0 1
0.125 0.375 0.0309999999999999998 0.0309999999999999998 1
0.1328125 0.375 0.0240000000000000005 0.0240000000000000005 1
0.140625 0.375 9.88499999999999979 9.88499999999999979 1
0.1484375 0.375 9.81099999999999994 9.81099999999999994 1
0.15625 0.375 9.64799999999999969 9.64799999999999969 1
0.1640625 0.375 0.0759999999999999981 0.0759999999999999981 1
0.171875 0.375 9.92800000000000082 9.92800000000000082 1
0.1796875 0.375 0.0240000000000000005 0.0240000000000000005 1
0.1875 0.375 9.64799999999999969 9.64799999999999969 1
0.1953125 0.375 0.0240000000000000005 0.0240000000000000005 1
0.203125 0.375 0 0 1
0.2109375 0.375 0.0240000000000000005 0.0240000000000000005 1
0.21875 0.375 0.139000000000000012 0.139000000000000012 1
0.2265625 0.375 0.0240000000000000005 0.0240000000000000005 1
0.234375 0.375 9.64799999999999969 9.64799999999999969 1
0.2421875 0.375 0.0240000000000000005 0.0240000000000000005 1
0.25 0.375 0.00700000000000000015 0.00700000000000000015 1
0.2578125 0.375 0.115000000000000005 0.115000000000000005 1
0.265625 0.375 0.0240000000000000005 0.0240000000000000005 1
0.2734375 0.375 0.0580000000000000029 0.0580000000000000029 1
0.28125 0.375 0.0240000000000000005 0.0240000000000000005 1
0.2890625 0.375 0.0240000000000000005 0.0240000000000000005 1
0.296875 0.375 0.00200000000000000004 0.00200000000000000004 1
0.3046875 0.375 0.0240000000000000005 0.0240000000000000005 1
0.3125 0.375 9.90499999999999936 9.90499999999999936 1
0.3203125 0.375 9.84600000000000009 9.84600000000000009 1
0.328125 0.375 0.0240000000000000005 0.0240000000000000005 1
0.3359375 0.375 0.0240000000000000005 0.0240000000000000005 1
0.34375 0.375 0.0759999999999999981 0.0759999999999999981 1
0.3515625 0.375 9.64799999999999969 9.64799999999999969 1
0.359375 0.375 9.74900000000000055 9.74900000000000055 1
0.3671875 0.375 0.0240000000000000005 0.0240000000000000005 1
0.375 0.375 9.87100000000000044 9.87100000000000044 1
0.3828125 0.375 0 0 1
0.390625 0.375 9.95599999999999952 9.95599999999999952 1
0.3984375 0.375 9.84500000000000064 9.84500000000000064 1
0.40625 0.375 0.165000000000000008 0.165000000000000008 1
0.4140625 0.375 0.00300000000000000006 0.00300000000000000006 1
0.421875 0.375 9.92800000000000082 9.92800000000000082 1
0.4296875 0.375 0.0240000000000000005 0.0240000000000000005 1
0.4375 0.375 9.66099999999999959 9.66099999999999959 1
0.4453125 0.375 0 0 1
0.453125 0.375 0.0240000000000000005 0.0240000000000000005 1
0.4609375 0.375 0.165000000000000008 0.165000000000000008 1
0.46875 0.375 0.178999999999999992 0.178999999999999992 1
0.4765625 0.375 0.0240000000000000005 0.0240000000000000005 1
0.484375 0.375 0 0 1
0.4921875 0.375 9.90199999999999925 9.90199999999999925 1
0.5 0.375 0.0240000000000000005 0.0240000000000000005 1
0.5078125 0.375 9.7759999999999998 9.7759999999999998 1
0.515625 0.375 9.96899999999999942 9.96899999999999942 1
0.5234375 0.375 9.9090000000000007 9.9090000000000007 1
0.53125 0.375 0.0240000000000000005 0.0240000000000000005 1
0.5390625 0.375 0.101999999999999993 0.101999999999999993 1
0.546875 0.375 9.92099999999999937 9.92099999999999937 1
0.5546875 0.375 0 0 1
0.5625 0.375 0.0240000000000000005 0.0240000000000000005 1
0.5703125 0.375 0.00300000000000000006 0.00300000000000000006 1
0.578125 0.375 0 0 1
0.5859375 0.375 0 0 1
0.59375 0.375 0 0 1
0.6015625 0.375 0.00300000000000000006 0.00300000000000000006 1
0.609375 0.375 0.0240000000000000005 0.0240000000000000005 1
0.6171875 0.375 0 0 1
0.625 0.375 9.87299999999999933 9.87299999999999933 1
0.6328125 0.375 0.0240000000000000005 0.0240000000000000005 1
0.640625 0.375 9.87599999999999945 9.87599999999999945 1
0.6484375 0.375 0.086999999999999994 0.086999999999999994 1
0.65625 0.375 9.92300000000000004 9.92300000000000004 1
0.6640625 0.375 0.177999999999999992 0.177999999999999992 1
0.671875 0.375 0.165000000000000008 0.165000000000000008 1
0.6796875 0.375 9.94500000000000028 9.94500000000000028 1
0.6875 0.375 0.00300000000000000006 0.00300000000000000006 1
0.6953125 0.375 0.0929999999999999993 0.0929999999999999993 1
0.703125 0.375 0 0 1
0.7109375 0.375 0.458000000000000018 0.458000000000000018 1
0.71875 0.375 0.112000000000000002 0.112000000000000002 1
0.7265625 0.375 0 0 1
0.734375 0.375 9.72100000000000009 9.72100000000000009 1
0.7421875 0.375 0 0 1
0.75 0.375 0 0 1
0.7578125 0.375 0.0240000000000000005 0.0240000000000000005 1
0.765625 0.375 0.248999999999999999 0.248999999999999999 1
0.7734375 0.375 0 0 1
0.78125 0.375 9.79599999999999937 9.79599999999999937 1
0.7890625 0.375 9.73099999999999987 9.73099999999999987 1
0.796875 0.375 0.00300000000000000006 0.00300000000000000006 1
0.8046875 0.375 0.0240000000000000005 0.0240000000000000005 1
0.8125 0.375 0.0240000000000000005 0.0240000000000000005 1
0.8203125 0.375 0 0 1
0.828125 0.375 9.75500000000000078 9.75500000000000078 1
0.8359375 0.375 9.74200000000000088 9.74200000000000088 1
0.84375 0.375 0.0240000000000000005 0.0240000000000000005 1
0.8515625 0.375 0.0240000000000000005 0.0240000000000000005 1
0.859375 0.375 0 0 1
0.8671875 0.375 0.00300000000000000006 0.00300000000000000006 1
0.875 0.375 0.0599999999999999978 0.0599999999999999978 1
0.8828125 0.375 0.123999999999999999 0.123999999999999999 1
0.890625 0.375 0.0240000000000000005 0.0240000000000000005 1
0.8984375 0.375 9.73199999999999932 9.73199999999999932 1
0.90625 0.375 0.0240000000000000005 0.0240000000000000005 1
0.9140625 0.375 0.202000000000000013 0.202000000000000013 1
0.921875 0.375 0 0 1
0.9296875 0.375 0.0240000000000000005 0.0240000000000000005 1
0.9375 0.375 0 0 1
0.9453125 0.375 0.0240000000000000005 0.0240000000000000005 1
0.953125 0.375 0.0240000000000000005 0.0240000000000000005 1
0.9609375 0.375 0.0240000000000000005 0.0240000000000000005 1
0.96875 0.375 9.88400000000000034 9.88400000000000034 1
0.9765625 0.375 9.84200000000000053 9.84200000000000053 1
0.984375 0.375 0 0 1
0.9921875 0.375 0.0240000000000000005 0.0240000000000000005 1
0 0.3828125 0.0700000000000000067 0.0700000000000000067 1
0.0078125 0.3828125 0.0240000000000000005 0.0240000000000000005 1
0.015625 0.3828125 0.0240000000000000005 0.0240000000000000005 1
0.0234375 0.3828125 0.0240000000000000005 0.0240000000000000005 1
0.03125 0.3828125 0.0609999999999999987 0.0609999999999999987 1
0.0390625 0.3828125 0.0240000000000000005 0.0240000000000000005 1
0.046875 0.3828125 0.0449999999999999983 0.0449999999999999983 1
0.0546875 0.3828125 9.85200000000000031 9.85200000000000031 1
0.0625 0.3828125 0.0630000000000000004 0.0630000000000000004 1
0.0703125 0.3828125 0.165000000000000008 0.165000000000000008 1
0.078125 0.3828125 0.115000000000000005 0.115000000000000005 1
0.0859375 0.3828125 9.78299999999999947 9.78299999999999947 1
0.09375 0.3828125 0.0379999999999999991 0.0379999999999999991 1
0.1015625 0.3828125 0.0240000000000000005 0.0240000000000000005 1
0.109375 0.3828125 0.0240000000000000005 0.0240000000000000005 1
0.1171875 0.3828125 0.183999999999999997 0.183999999999999997 1
0.125 0.3828125 9.9610000000000003 9.9610000000000003 1
0.1328125 0.3828125 9.85599999999999987 9.85599999999999987 1
0.140625 0.3828125 0.0240000000000000005 0.0240000000000000005 1
0.1484375 0.3828125 0.0240000000000000005 0.0240000000000000005 1
0.15625 0.3828125 0.148999999999999994 0.148999999999999994 1
0.1640625 0.3828125 0.0240000000000000005 0.0240000000000000005 1
0.171875 0.3828125 0.0800000000000000017 0.0800000000000000017 1
0.1796875 0.3828125 0.0240000000000000005 0.0240000000000000005 1
0.1875 0.3828125 9.98000000000000043 9.98000000000000043 1
0.1953125 0.3828125 0 0 1
0.203125 0.3828125 0 0 1
0.2109375 0.3828125 0.0240000000000000005 0.0240000000000000005 1
0.21875 0.3828125 0.131000000000000005 0.131000000000000005 1
0.2265625 0.3828125 0.0700000000000000067 0.0700000000000000067 1
0.234375 0.3828125 0 0 1
0.2421875 0.3828125 9.74200000000000088 9.74200000000000088 1
0.25 0.3828125 0.0240000000000000005 0.0240000000000000005 1
0.2578125 0.3828125 0.0240000000000000005 0.0240000000000000005 1
0.265625 0.3828125 0 0 1
0.2734375 0.3828125 0.149999999999999994 0.149999999999999994 1
0.28125 0.3828125 0.00300000000000000006 0.00300000000000000006 1
0.2890625 0.3828125 0.0240000000000000005 0.0240000000000000005 1
0.296875 0.3828125 9.91200000000000081 9.91200000000000081 1
0.3046875 0.3828125 0.00300000000000000006 0.00300000000000000006 1
0.3125 0.3828125 0 0 1
0.3203125 0.3828125 0.0240000000000000005 0.0240000000000000005 1
0.328125 0.3828125 0 0 1
0.3359375 0.3828125 0.146999999999999992 0.146999999999999992 1
0.34375 0.3828125 0.234999999999999987 0.234999999999999987 1
0.3515625 0.3828125 0 0 1
0.359375 0.3828125 0.125 0.125 1
0.3671875 0.3828125 9.74200000000000088 9.74200000000000088 1
0.375 0.3828125 0.0240000000000000005 0.0240000000000000005 1
0.3828125 0.3828125 9.84800000000000075 9.84800000000000075 1
0.390625 0.3828125 0.163000000000000006 0.163000000000000006 1
0.3984375 0.3828125 9.82699999999999996 9.82699999999999996 1
0.40625 0.3828125 9.90300000000000047 9.90300000000000047 1
0.4140625 0.3828125 0.00300000000000000006 0.00300000000000000006 1
0.421875 0.3828125 0.165000000000000008 0.165000000000000008 1
0.4296875 0.3828125 9.74499999999999922 9.74499999999999922 1
0.4375 0.3828125 0 0 1
0.4453125 0.3828125 0 0 1
0.453125 0.3828125 0 0 1
0.4609375 0.3828125 0.0240000000000000005 0.0240000000000000005 1
0.46875 0.3828125 0.0240000000000000005 0.0240000000000000005 1
0.4765625 0.3828125 0.248999999999999999 0.248999999999999999 1
0.484375 0.3828125 9.95800000000000018 9.95800000000000018 1
0.4921875 0.3828125 0.165000000000000008 0.165000000000000008 1
0.5 0.3828125 0 0 1
0.5078125 0.3828125 9.4220000000000006 9.4220000000000006 1
0.515625 0.3828125 0.0240000000000000005 0.0240000000000000005 1
0.5234375 0.3828125 0.0240000000000000005 0.0240000000000000005 1
0.53125 0.3828125 0.0240000000000000005 0.0240000000000000005 1
0.5390625 0.3828125 9.92800000000000082 9.92800000000000082 1
0.546875 0.3828125 9.99399999999999977 9.99399999999999977 1
0.5546875 0.3828125 9.66900000000000048 9.66900000000000048 1
0.5625 0.3828125 0.0240000000000000005 0.0240000000000000005 1
0.5703125 0.3828125 0.00300000000000000006 0.00300000000000000006 1
0.578125 0.3828125 0.0240000000000000005 0.0240000000000000005 1
0.5859375 0.3828125 0 0 1
0.59375 0.3828125 0 0 1
0.6015625 0.3828125 9.82199999999999918 9.82199999999999918 1
0.609375 0.3828125 0.125 0.125 1
0.6171875 0.3828125 0.254000000000000004 0.254000000000000004 1
0.625 0.3828125 0 0 1
0.6328125 0.3828125 0.0280000000000000006 0.0280000000000000006 1
0.640625 0.3828125 0.0519999999999999976 0.0519999999999999976 1
0.6484375 0.3828125 0.00300000000000000006 0.00300000000000000006 1
0.65625 0.3828125 0 0 1
0.6640625 0.3828125 0.0240000000000000005 0.0240000000000000005 1
0.671875 0.3828125 0.0240000000000000005 0.0240000000000000005 1
0.6796875 0.3828125 0.0240000000000000005 0.0240000000000000005 1
0.6875 0.3828125 9.79800000000000004 9.79800000000000004 1
0.6953125 0.3828125 0 0 1
0.703125 0.3828125 0.0240000000000000005 0.0240000000000000005 1
0.7109375 0.3828125 0.0909999999999999976 0.0909999999999999976 1
0.71875 0.3828125 0.299999999999999989 0.299999999999999989 1
0.7265625 0.3828125 0.0240000000000000005 0.0240000000000000005 1
0.734375 0.3828125 9.78100000000000058 9.78100000000000058 1
0.7421875 0.3828125 0 0 1
0.75 0.3828125 9.92300000000000004 9.92300000000000004 1
0.7578125 0.3828125 0.125 0.125 1
0.765625 0.3828125 0.0240000000000000005 0.0240000000000000005 1
0.7734375 0.3828125 9.99399999999999977 9.99399999999999977 1
0.78125 0.3828125 0.00300000000000000006 0.00300000000000000006 1
0.7890625 0.3828125 0.0609999999999999987 0.0609999999999999987 1
0.796875 0.3828125 0.0240000000000000005 0.0240000000000000005 1
0.8046875 0.3828125 9.51800000000000068 9.51800000000000068 1
0.8125 0.3828125 0.0609999999999999987 0.0609999999999999987 1
0.8203125 0.3828125 0.0240000000000000005 0.0240000000000000005 1
0.828125 0.3828125 0.0240000000000000005 0.0240000000000000005 1
0.8359375 0.3828125 9.95800000000000018 9.95800000000000018 1
0.84375 0.3828125 9.9350000000000005 9.9350000000000005 1
0.8515625 0.3828125 9.8409999999999993 9.8409999999999993 1
0.859375 0.3828125 0.0240000000000000005 0.0240000000000000005 1
0.8671875 0.3828125 0 0 1
0.875 0.3828125 0 0 1
0.8828125 0.3828125 0.0240000000000000005 0.0240000000000000005 1
0.890625 0.3828125 0.0240000000000000005 0.0240000000000000005 1
0.8984375 0.3828125 0 0 1
0.90625 0.3828125 9.77299999999999969 9.77299999999999969 1
0.9140625 0.3828125 0.0240000000000000005 0.0240000000000000005 1
0.921875 0.3828125 0.0240000000000000005 0.0240000000000000005 1
0.9296875 0.3828125 0.160000000000000003 0.160000000000000003 1
0.9375 0.3828125 0.0660000000000000031 0.0660000000000000031 1
0.9453125 0.3828125 0.0240000000000000005 0.0240000000000000005 1
0.953125 0.3828125 0.0240000000000000005 0.0240000000000000005 1
0.9609375 0.3828125 0.235999999999999988 0.235999999999999988 1
0.96875 0.3828125 9.86299999999999955 9.86299999999999955 1
0.9765625 0.3828125 0 0 1
0.984375 0.3828125 0.0240000000000000005 0.0240000000000000005 1
0.9921875 0.3828125 0.0219999999999999987 0.0219999999999999987 1
0 0.390625 0.0240000000000000005 0.0240000000000000005 1
0.0078125 0.390625 9.97700000000000031 9.97700000000000031 1
0.015625 0.390625 9.7840000000000007 9.7840000000000007 1
0.0234375 0.390625 0.0240000000000000005 0.0240000000000000005 1
0.03125 0.390625 9.89400000000000013 9.89400000000000013 1
0.0390625 0.390625 0.0240000000000000005 0.0240000000000000005 1
0.046875 0.390625 0 0 1
0.0546875 0.390625 9.7840000000000007 9.7840000000000007 1
0.0625 0.390625 9.94200000000000017 9.94200000000000017 1
0.0703125 0.390625 0.0240000000000000005 0.0240000000000000005 1
0.078125 0.390625 0 0 1
0.0859375 0.390625 0 0 1
0.09375 0.390625 0.0240000000000000005 0.0240000000000000005 1
0.1015625 0.390625 0.0250000000000000014 0.0250000000000000014 1
0.109375 0.390625 9.78200000000000003 9.78200000000000003 1
0.1171875 0.390625 0 0 1
0.125 0.390625 0.0630000000000000004 0.0630000000000000004 1
0.1328125 0.390625 0.215999999999999998 0.215999999999999998 1
0.140625 0.390625 0.146999999999999992 0.146999999999999992 1
0.1484375 0.390625 0.0240000000000000005 0.0240000000000000005 1
0.15625 0.390625 9.99900000000000055 9.99900000000000055 1
0.1640625 0.390625 9.99399999999999977 9.99399999999999977 1
0.171875 0.390625 9.89400000000000013 9.89400000000000013 1
0.1796875 0.390625 0.101999999999999993 0.101999999999999993 1
0.1875 0.390625 9.77899999999999991 9.77899999999999991 1
0.1953125 0.390625 9.99399999999999977 9.99399999999999977 1
0.203125 0.390625 0.149999999999999994 0.149999999999999994 1
0.2109375 0.390625 0.0290000000000000015 0.0290000000000000015 1
0.21875 0.390625 0.189000000000000001 0.189000000000000001 1
0.2265625 0.390625 0.0240000000000000005 0.0240000000000000005 1
0.234375 0.390625 0.0240000000000000005 0.0240000000000000005 1
0.2421875 0.390625 9.89700000000000024 9.89700000000000024 1
0.25 0.390625 0 0 1
0.2578125 0.390625 0 0 1
0.265625 0.390625 0.0240000000000000005 0.0240000000000000005 1
0.2734375 0.390625 9.64799999999999969 9.64799999999999969 1
0.28125 0.390625 9.9350000000000005 9.9350000000000005 1
0.2890625 0.390625 0.0240000000000000005 0.0240000000000000005 1
0.296875 0.390625 0.0240000000000000005 0.0240000000000000005 1
0.3046875 0.390625 0.0240000000000000005 0.0240000000000000005 1
0.3125 0.390625 9.84600000000000009 9.84600000000000009 1
0.3203125 0.390625 9.99399999999999977 9.99399999999999977 1
0.328125 0.390625 0.0519999999999999976 0.0519999999999999976 1
0.3359375 0.390625 0 0 1
0.34375 0.390625 0.0240000000000000005 0.0240000000000000005 1
0.3515625 0.390625 9.64799999999999969 9.64799999999999969 1
0.359375 0.390625 0.183999999999999997 0.183999999999999997 1
0.3671875 0.390625 0.165000000000000008 0.165000000000000008 1
0.375 0.390625 0.165000000000000008 0.165000000000000008 1
0.3828125 0.390625 0.0240000000000000005 0.0240000000000000005 1
0.390625 0.390625 0.00300000000000000006 0.00300000000000000006 1
0.3984375 0.390625 0 0 1
0.40625 0.390625 9.6509999999999998 9.6509999999999998 1
0.4140625 0.390625 0.0700000000000000067 0.0700000000000000067 1
0.421875 0.390625 0.0240000000000000005 0.0240000000000000005 1
0.4296875 0.390625 0.0240000000000000005 0.0240000000000000005 1
0.4375 0.390625 0.0240000000000000005 0.0240000000000000005 1
0.4453125 0.390625 9.78200000000000003 9.78200000000000003 1
0.453125 0.390625 0.183999999999999997 0.183999999999999997 1
0.4609375 0.390625 0.0240000000000000005 0.0240000000000000005 1
0.46875 0.390625 0.0240000000000000005 0.0240000000000000005 1
0.4765625 0.390625 9.88700000000000045 9.88700000000000045 1
0.484375 0.390625 0.0240000000000000005 0.0240000000000000005 1
0.4921875 0.390625 0.00300000000000000006 0.00300000000000000006 1
0.5 0.390625 9.92800000000000082 9.92800000000000082 1
0.5078125 0.390625 9.65000000000000036 9.65000000000000036 1
0.515625 0.390625 0.163000000000000006 0.163000000000000006 1
0.5234375 0.390625 9.64799999999999969 9.64799999999999969 1
0.53125 0.390625 9.95199999999999996 9.95199999999999996 1
0.5390625 0.390625 0.0240000000000000005 0.0240000000000000005 1
0.546875 0.390625 9.75799999999999912 9.75799999999999912 1
0.5546875 0.390625 9.99399999999999977 9.99399999999999977 1
0.5625 0.390625 9.99399999999999977 9.99399999999999977 1
0.5703125 0.390625 0.116000000000000006 0.116000000000000006 1
0.578125 0.390625 9.81799999999999962 9.81799999999999962 1
0.5859375 0.390625 9.99399999999999977 9.99399999999999977 1
0.59375 0.390625 0 0 1
0.6015625 0.390625 0.0700000000000000067 0.0700000000000000067 1
0.609375 0.390625 0.0240000000000000005 0.0240000000000000005 1
0.6171875 0.390625 0 0 1
0.625 0.390625 0.0240000000000000005 0.0240000000000000005 1
0.6328125 0.390625 0.0240000000000000005 0.0240000000000000005 1
0.640625 0.390625 0.201000000000000012 0.201000000000000012 1
0.6484375 0.390625 9.70899999999999963 9.70899999999999963 1
0.65625 0.390625 0.271000000000000019 0.271000000000000019 1
0.6640625 0.390625 0.184999999999999998 0.184999999999999998 1
0.671875 0.390625 0.165000000000000008 0.165000000000000008 1
0.6796875 0.390625 0.0240000000000000005 0.0240000000000000005 1
0.6875 0.390625 0 0 1
0.6953125 0.390625 0.221000000000000002 0.221000000000000002 1
0.703125 0.390625 0.0700000000000000067 0.0700000000000000067 1
0.7109375 0.390625 9.97000000000000064 9.97000000000000064 1
0.71875 0.390625 9.69899999999999984 9.69899999999999984 1
0.7265625 0.390625 9.67300000000000004 9.67300000000000004 1
0.734375 0.390625 9.64799999999999969 9.64799999999999969 1
0.7421875 0.390625 0 0 1
0.75 0.390625 9.7629999999999999 9.7629999999999999 1
0.7578125 0.390625 0.128000000000000003 0.128000000000000003 1
0.765625 0.390625 0.0240000000000000005 0.0240000000000000005 1
0.7734375 0.390625 0.0619999999999999996 0.0619999999999999996 1
0.78125 0.390625 9.95599999999999952 9.95599999999999952 1
0.7890625 0.390625 0.0240000000000000005 0.0240000000000000005 1
0.796875 0.390625 0.0749999999999999972 0.0749999999999999972 1
0.8046875 0.390625 0.00300000000000000006 0.00300000000000000006 1
0.8125 0.390625 0 0 1
0.8203125 0.390625 9.88599999999999923 9.88599999999999923 1
0.828125 0.390625 9.86400000000000077 9.86400000000000077 1
0.8359375 0.390625 9.99399999999999977 9.99399999999999977 1
0.84375 0.390625 0.0240000000000000005 0.0240000000000000005 1
0.8515625 0.390625 9.99399999999999977 9.99399999999999977 1
0.859375 0.390625 0.0240000000000000005 0.0240000000000000005 1
0.8671875 0.390625 9.93800000000000061 9.93800000000000061 1
0.875 0.390625 0.0240000000000000005 0.0240000000000000005 1
0.8828125 0.390625 0.171000000000000013 0.171000000000000013 1
0.890625 0.390625 9.7240000000000002 9.7240000000000002 1
0.8984375 0.390625 0.0240000000000000005 0.0240000000000000005 1
0.90625 0.390625 0 0 1
0.9140625 0.390625 0 0 1
0.921875 0.390625 0.0240000000000000005 0.0240000000000000005 1
0.9296875 0.390625 0.0240000000000000005 0.0240000000000000005 1
0.9375 0.390625 0.165000000000000008 0.165000000000000008 1
0.9453125 0.390625 0.135000000000000009 0.135000000000000009 1
0.953125 0.390625 0.185999999999999999 0.185999999999999999 1
0.9609375 0.390625 0.170000000000000012 0.170000000000000012 1
0.96875 0.390625 0.00300000000000000006 0.00300000000000000006 1
0.9765625 0.390625 0.067000000000000004 0.067000000000000004 1
0.984375 0.390625 0.234999999999999987 0.234999999999999987 1
0.9921875 0.390625 9.83900000000000041 9.83900000000000041 1
0 0.3984375 0.105999999999999997 0.105999999999999997 1
0.0078125 0.3984375 0.0240000000000000005 0.0240000000000000005 1
0.015625 0.3984375 9.89000000000000057 9.89000000000000057 1
0.0234375 0.3984375 0 0 1
0.03125 0.3984375 0 0 1
0.0390625 0.3984375 9.78299999999999947 9.78299999999999947 1
0.046875 0.3984375 0.0240000000000000005 0.0240000000000000005 1
0.0546875 0.3984375 0.0240000000000000005 0.0240000000000000005 1
0.0625 0.3984375 9.8100000000000005 9.8100000000000005 1
0.0703125 0.3984375 9.73000000000000043 9.73000000000000043 1
0.078125 0.3984375 0.0240000000000000005 0.0240000000000000005 1
0.0859375 0.3984375 0.176999999999999991 0.176999999999999991 1
0.09375 0.3984375 9.7970000000000006 9.7970000000000006 1
0.1015625 0.3984375 0 0 1
0.109375 0.3984375 0.0240000000000000005 0.0240000000000000005 1
0.1171875 0.3984375 0.0240000000000000005 0.0240000000000000005 1
0.125 0.3984375 0.0240000000000000005 0.0240000000000000005 1
0.1328125 0.3984375 0.222000000000000003 0.222000000000000003 1
0.140625 0.3984375 0.0240000000000000005 0.0240000000000000005 1
0.1484375 0.3984375 0.0240000000000000005 0.0240000000000000005 1
0.15625 0.3984375 9.74200000000000088 9.74200000000000088 1
0.1640625 0.3984375 0.213999999999999996 0.213999999999999996 1
0.171875 0.3984375 9.71899999999999942 9.71899999999999942 1
0.1796875 0.3984375 9.87299999999999933 9.87299999999999933 1
0.1875 0.3984375 0.0240000000000000005 0.0240000000000000005 1
0.1953125 0.3984375 0.185999999999999999 0.185999999999999999 1
0.203125 0.3984375 0.0240000000000000005 0.0240000000000000005 1
0.2109375 0.3984375 9.7970000000000006 9.7970000000000006 1
0.21875 0.3984375 0.254000000000000004 0.254000000000000004 1
0.2265625 0.3984375 0.0149999999999999994 0.0149999999999999994 1
0.234375 0.3984375 0.190000000000000002 0.190000000000000002 1
0.2421875 0.3984375 9.65000000000000036 9.65000000000000036 1
0.25 0.3984375 9.71899999999999942 9.71899999999999942 1
0.2578125 0.3984375 9.5600000000000005 9.5600000000000005 1
0.265625 0.3984375 0.0240000000000000005 0.0240000000000000005 1
0.2734375 0.3984375 0.0240000000000000005 0.0240000000000000005 1
0.28125 0.3984375 9.91000000000000014 9.91000000000000014 1
0.2890625 0.3984375 0.0240000000000000005 0.0240000000000000005 1
0.296875 0.3984375 9.76800000000000068 9.76800000000000068 1
0.3046875 0.3984375 9.92800000000000082 9.92800000000000082 1
0.3125 0.3984375 0.0240000000000000005 0.0240000000000000005 1
0.3203125 0.3984375 0 0 1
0.328125 0.3984375 0.0700000000000000067 0.0700000000000000067 1
0.3359375 0.3984375 0.165000000000000008 0.165000000000000008 1
0.34375 0.3984375 9.99099999999999966 9.99099999999999966 1
0.3515625 0.3984375 9.92300000000000004 9.92300000000000004 1
0.359375 0.3984375 0.0749999999999999972 0.0749999999999999972 1
0.3671875 0.3984375 0.165000000000000008 0.165000000000000008 1
0.375 0.3984375 0.0240000000000000005 0.0240000000000000005 1
0.3828125 0.3984375 0 0 1
0.390625 0.3984375 9.79800000000000004 9.79800000000000004 1
0.3984375 0.3984375 9.85100000000000087 9.85100000000000087 1
0.40625 0.3984375 0 0 1
0.4140625 0.3984375 0.0240000000000000005 0.0240000000000000005 1
0.421875 0.3984375 0.115000000000000005 0.115000000000000005 1
0.4296875 0.3984375 0.332000000000000017 0.332000000000000017 1
0.4375 0.3984375 0.304999999999999993 0.304999999999999993 1
0.4453125 0.3984375 0 0 1
0.453125 0.3984375 0.0240000000000000005 0.0240000000000000005 1
0.4609375 0.3984375 0.0889999999999999958 0.0889999999999999958 1
0.46875 0.3984375 0.00300000000000000006 0.00300000000000000006 1
0.4765625 0.3984375 0 0 1
0.484375 0.3984375 9.9090000000000007 9.9090000000000007 1
0.4921875 0.3984375 0 0 1
0.5 0.3984375 0 0 1
0.5078125 0.3984375 0.00300000000000000006 0.00300000000000000006 1
0.515625 0.3984375 0.0240000000000000005 0.0240000000000000005 1
0.5234375 0.3984375 9.83799999999999919 9.83799999999999919 1
0.53125 0.3984375 0.0240000000000000005 0.0240000000000000005 1
0.5390625 0.3984375 9.83399999999999963 9.83399999999999963 1
0.546875 0.3984375 0.0149999999999999994 0.0149999999999999994 1
0.5546875 0.3984375 0.0240000000000000005 0.0240000000000000005 1
0.5625 0.3984375 0.0240000000000000005 0.0240000000000000005 1
0.5703125 0.3984375 0.103999999999999995 0.103999999999999995 1
0.578125 0.3984375 0.504000000000000004 0.504000000000000004 1
0.5859375 0.3984375 0.0700000000000000067 0.0700000000000000067 1
0.59375 0.3984375 9.89499999999999957 9.89499999999999957 1
0.6015625 0.3984375 9.74200000000000088 9.74200000000000088 1
0.609375 0.3984375 0.00300000000000000006 0.00300000000000000006 1
0.6171875 0.3984375 0.378000000000000003 0.378000000000000003 1
0.625 0.3984375 9.74200000000000088 9.74200000000000088 1
0.6328125 0.3984375 0.0240000000000000005 0.0240000000000000005 1
0.640625 0.3984375 0.253000000000000003 0.253000000000000003 1
0.6484375 0.3984375 0.138000000000000012 0.138000000000000012 1
0.65625 0.3984375 0.0240000000000000005 0.0240000000000000005 1
0.6640625 0.3984375 0 0 1
0.671875 0.3984375 0.0790000000000000008 0.0790000000000000008 1
0.6796875 0.3984375 9.78800000000000026 9.78800000000000026 1
0.6875 0.3984375 0.0240000000000000005 0.0240000000000000005 1
0.6953125 0.3984375 0.0240000000000000005 0.0240000000000000005 1
0.703125 0.3984375 0 0 1
0.7109375 0.3984375 0.0240000000000000005 0.0240000000000000005 1
0.71875 0.3984375 0.165000000000000008 0.165000000000000008 1
0.7265625 0.3984375 0 0 1
0.734375 0.3984375 0.0240000000000000005 0.0240000000000000005 1
0.7421875 0.3984375 0 0 1
0.75 0.3984375 0 0 1
0.7578125 0.3984375 9.98300000000000054 9.98300000000000054 1
0.765625 0.3984375 0.0240000000000000005 0.0240000000000000005 1
0.7734375 0.3984375 0 0 1
0.78125 0.3984375 0 0 1
0.7890625 0.3984375 9.84500000000000064 9.84500000000000064 1
0.796875 0.3984375 9.72100000000000009 9.72100000000000009 1
0.8046875 0.3984375 0 0 1
0.8125 0.3984375 0.0240000000000000005 0.0240000000000000005 1
0.8203125 0.3984375 9.8100000000000005 9.8100000000000005 1
0.828125 0.3984375 0.30099999999999999 0.30099999999999999 1
0.8359375 0.3984375 0.0240000000000000005 0.0240000000000000005 1
0.84375 0.3984375 9.65499999999999936 9.65499999999999936 1
0.8515625 0.3984375 0.00300000000000000006 0.00300000000000000006 1
0.859375 0.3984375 9.83500000000000085 9.83500000000000085 1
0.8671875 0.3984375 0 0 1
0.875 0.3984375 9.76099999999999923 9.76099999999999923 1
0.8828125 0.3984375 0.0240000000000000005 0.0240000000000000005 1
0.890625 0.3984375 0.0240000000000000005 0.0240000000000000005 1
0.8984375 0.3984375 0.0240000000000000005 0.0240000000000000005 1
0.90625 0.3984375 0.165000000000000008 0.165000000000000008 1
0.9140625 0.3984375 0.0240000000000000005 0.0240000000000000005 1
0.921875 0.3984375 0.0700000000000000067 0.0700000000000000067 1
0.9296875 0.3984375 9.99399999999999977 9.99399999999999977 1
0.9375 0.3984375 0.096000000000000002 0.096000000000000002 1
0.9453125 0.3984375 0.143999999999999989 0.143999999999999989 1
0.953125 0.3984375 0.0240000000000000005 0.0240000000000000005 1
0.9609375 0.3984375 0.0539999999999999994 0.0539999999999999994 1
0.96875 0.3984375 0.100000000000000006 0.100000000000000006 1
0.9765625 0.3984375 0.00300000000000000006 0.00300000000000000006 1
0.984375 0.3984375 0.0240000000000000005 0.0240000000000000005 1
0.9921875 0.3984375 0.0240000000000000005 0.0240000000000000005 1
0 0.40625 0.0240000000000000005 0.0240000000000000005 1
0.0078125 0.40625 0.165000000000000008 0.165000000000000008 1
0.015625 0.40625 9.92800000000000082 9.92800000000000082 1
0.0234375 0.40625 9.93299999999999983 9.93299999999999983 1
0.03125 0.40625 0.0259999999999999988 0.0259999999999999988 1
0.0390625 0.40625 0 0 1
0.046875 0.40625 9.99399999999999977 9.99399999999999977 1
0.0546875 0.40625 9.64799999999999969 9.64799999999999969 1
0.0625 0.40625 0 0 1
0.0703125 0.40625 9.85200000000000031 9.85200000000000031 1
0.078125 0.40625 0.0240000000000000005 0.0240000000000000005 1
0.0859375 0.40625 0.0700000000000000067 0.0700000000000000067 1
0.09375 0.40625 0.0240000000000000005 0.0240000000000000005 1
0.1015625 0.40625 0 0 1
0.109375 0.40625 0.0170000000000000012 0.0170000000000000012 1
0.1171875 0.40625 0.0240000000000000005 0.0240000000000000005 1
0.125 0.40625 0.0240000000000000005 0.0240000000000000005 1
0.1328125 0.40625 0.115000000000000005 0.115000000000000005 1
0.140625 0.40625 0 0 1
0.1484375 0.40625 0.0240000000000000005 0.0240000000000000005 1
0.15625 0.40625 9.99399999999999977 9.99399999999999977 1
0.1640625 0.40625 9.5860000000000003 9.5860000000000003 1
0.171875 0.40625 0.391000000000000014 0.391000000000000014 1
0.1796875 0.40625 9.74200000000000088 9.74200000000000088 1
0.1875 0.40625 0.173999999999999988 0.173999999999999988 1
0.1953125 0.40625 9.99399999999999977 9.99399999999999977 1
0.203125 0.40625 0.0240000000000000005 0.0240000000000000005 1
0.2109375 0.40625 0 0 1
0.21875 0.40625 9.53299999999999947 9.53299999999999947 1
0.2265625 0.40625 0.159000000000000002 0.159000000000000002 1
0.234375 0.40625 0.0240000000000000005 0.0240000000000000005 1
0.2421875 0.40625 0.0240000000000000005 0.0240000000000000005 1
0.25 0.40625 0.14499999999999999 0.14499999999999999 1
0.2578125 0.40625 0.0240000000000000005 0.0240000000000000005 1
0.265625 0.40625 0.0240000000000000005 0.0240000000000000005 1
0.2734375 0.40625 0.0240000000000000005 0.0240000000000000005 1
0.28125 0.40625 0 0 1
0.2890625 0.40625 0.0700000000000000067 0.0700000000000000067 1
0.296875 0.40625 0 0 1
0.3046875 0.40625 9.77999999999999936 9.77999999999999936 1
0.3125 0.40625 0.00300000000000000006 0.00300000000000000006 1
0.3203125 0.40625 0.0280000000000000006 0.0280000000000000006 1
0.328125 0.40625 9.77399999999999913 9.77399999999999913 1
0.3359375 0.40625 0.00300000000000000006 0.00300000000000000006 1
0.34375 0.40625 0.0240000000000000005 0.0240000000000000005 1
0.3515625 0.40625 9.54400000000000048 9.54400000000000048 1
0.359375 0.40625 0.0240000000000000005 0.0240000000000000005 1
0.3671875 0.40625 0.151999999999999996 0.151999999999999996 1
0.375 0.40625 0.0790000000000000008 0.0790000000000000008 1
0.3828125 0.40625 0 0 1
0.390625 0.40625 9.81400000000000006 9.81400000000000006 1
0.3984375 0.40625 9.78299999999999947 9.78299999999999947 1
0.40625 0.40625 9.72700000000000031 9.72700000000000031 1
0.4140625 0.40625 0.0700000000000000067 0.0700000000000000067 1
0.421875 0.40625 0.0240000000000000005 0.0240000000000000005 1
0.4296875 0.40625 0.0240000000000000005 0.0240000000000000005 1
0.4375 0.40625 0 0 1
0.4453125 0.40625 9.8230000000000004 9.8230000000000004 1
0.453125 0.40625 0.00300000000000000006 0.00300000000000000006 1
0.4609375 0.40625 0.0240000000000000005 0.0240000000000000005 1
0.46875 0.40625 0 0 1
0.4765625 0.40625 0.165000000000000008 0.165000000000000008 1
0.484375 0.40625 0.0240000000000000005 0.0240000000000000005 1
0.4921875 0.40625 0.0240000000000000005 0.0240000000000000005 1
0.5 0.40625 0.0240000000000000005 0.0240000000000000005 1
0.5078125 0.40625 0.107999999999999999 0.107999999999999999 1
0.515625 0.40625 0.00300000000000000006 0.00300000000000000006 1
0.5234375 0.40625 0.177999999999999992 0.177999999999999992 1
0.53125 0.40625 0.0240000000000000005 0.0240000000000000005 1
0.5390625 0.40625 0.00300000000000000006 0.00300000000000000006 1
0.546875 0.40625 0.245999999999999996 0.245999999999999996 1
0.5546875 0.40625 0 0 1
0.5625 0.40625 9.99300000000000033 9.99300000000000033 1
0.5703125 0.40625 0 0 1
0.578125 0.40625 0.165000000000000008 0.165000000000000008 1
0.5859375 0.40625 0.133000000000000007 0.133000000000000007 1
0.59375 0.40625 0.23899999999999999 0.23899999999999999 1
0.6015625 0.40625 0.00300000000000000006 0.00300000000000000006 1
0.609375 0.40625 9.86400000000000077 9.86400000000000077 1
0.6171875 0.40625 9.80300000000000082 9.80300000000000082 1
0.625 0.40625 9.74200000000000088 9.74200000000000088 1
0.6328125 0.40625 0.165000000000000008 0.165000000000000008 1
0.640625 0.40625 0.0240000000000000005 0.0240000000000000005 1
0.6484375 0.40625 0 0 1
0.65625 0.40625 0.0240000000000000005 0.0240000000000000005 1
0.6640625 0.40625 0.0359999999999999973 0.0359999999999999973 1
0.671875 0.40625 0 0 1
0.6796875 0.40625 0 0 1
0.6875 0.40625 0.0240000000000000005 0.0240000000000000005 1
0.6953125 0.40625 0.0240000000000000005 0.0240000000000000005 1
0.703125 0.40625 0.331000000000000016 0.331000000000000016 1
0.7109375 0.40625 0 0 1
0.71875 0.40625 0.325000000000000011 0.325000000000000011 1
0.7265625 0.40625 0.173999999999999988 0.173999999999999988 1
0.734375 0.40625 0.165000000000000008 0.165000000000000008 1
0.7421875 0.40625 0.0240000000000000005 0.0240000000000000005 1
0.75 0.40625 9.79400000000000048 9.79400000000000048 1
0.7578125 0.40625 9.64799999999999969 9.64799999999999969 1
0.765625 0.40625 0.0240000000000000005 0.0240000000000000005 1
0.7734375 0.40625 0.0240000000000000005 0.0240000000000000005 1
0.78125 0.40625 0 0 1
0.7890625 0.40625 0.117000000000000007 0.117000000000000007 1
0.796875 0.40625 9.8620000000000001 9.8620000000000001 1
0.8046875 0.40625 0.0240000000000000005 0.0240000000000000005 1
0.8125 0.40625 0.0929999999999999993 0.0929999999999999993 1
0.8203125 0.40625 0.0240000000000000005 0.0240000000000000005 1
0.828125 0.40625 0 0 1
0.8359375 0.40625 9.85899999999999999 9.85899999999999999 1
0.84375 0.40625 0.115000000000000005 0.115000000000000005 1
0.8515625 0.40625 0.0240000000000000005 0.0240000000000000005 1
0.859375 0.40625 0.0240000000000000005 0.0240000000000000005 1
0.8671875 0.40625 9.99799999999999933 9.99799999999999933 1
0.875 0.40625 9.78999999999999915 9.78999999999999915 1
0.8828125 0.40625 0.0240000000000000005 0.0240000000000000005 1
0.890625 0.40625 0.0309999999999999998 0.0309999999999999998 1
0.8984375 0.40625 9.875 9.875 1
0.90625 0.40625 9.89000000000000057 9.89000000000000057 1
0.9140625 0.40625 9.88299999999999912 9.88299999999999912 1
0.921875 0.40625 0.258000000000000007 0.258000000000000007 1
0.9296875 0.40625 9.78500000000000014 9.78500000000000014 1
0.9375 0.40625 0.0240000000000000005 0.0240000000000000005 1
0.9453125 0.40625 0.0240000000000000005 0.0240000000000000005 1
0.953125 0.40625 0.277000000000000024 0.277000000000000024 1
0.9609375 0.40625 0.0539999999999999994 0.0539999999999999994 1
0.96875 0.40625 0.0240000000000000005 0.0240000000000000005 1
0.9765625 0.40625 9.75 9.75 1
0.984375 0.40625 0.0240000000000000005 0.0240000000000000005 1
0.9921875 0.40625 9.79299999999999926 9.79299999999999926 1
0 0.4140625 9.94699999999999918 9.94699999999999918 1
0.0078125 0.4140625 0 0 1
0.015625 0.4140625 0 0 1
0.0234375 0.4140625 9.8100000000000005 9.8100000000000005 1
0.03125 0.4140625 9.93599999999999994 9.93599999999999994 1
0.0390625 0.4140625 0.0240000000000000005 0.0240000000000000005 1
0.046875 0.4140625 0.00400000000000000008 0.00400000000000000008 1
0.0546875 0.4140625 0 0 1
0.0625 0.4140625 0.00800000000000000017 0.00800000000000000017 1
0.0703125 0.4140625 0.107999999999999999 0.107999999999999999 1
0.078125 0.4140625 0.109 0.109 1
0.0859375 0.4140625 0.0240000000000000005 0.0240000000000000005 1
0.09375 0.4140625 0.0240000000000000005 0.0240000000000000005 1
0.1015625 0.4140625 0.0240000000000000005 0.0240000000000000005 1
0.109375 0.4140625 0.0240000000000000005 0.0240000000000000005 1
0.1171875 0.4140625 0.0240000000000000005 0.0240000000000000005 1
0.125 0.4140625 0.0240000000000000005 0.0240000000000000005 1
0.1328125 0.4140625 0.00400000000000000008 0.00400000000000000008 1
0.140625 0.4140625 9.99399999999999977 9.99399999999999977 1
0.1484375 0.4140625 0.258000000000000007 0.258000000000000007 1
0.15625 0.4140625 0.149999999999999994 0.149999999999999994 1
0.1640625 0.4140625 0.200000000000000011 0.200000000000000011 1
0.171875 0.4140625 0.101000000000000006 0.101000000000000006 1
0.1796875 0.4140625 0 0 1
0.1875 0.4140625 9.95100000000000051 9.95100000000000051 1
0.1953125 0.4140625 9.8279999999999994 9.8279999999999994 1
0.203125 0.4140625 0 0 1
0.2109375 0.4140625 0.0240000000000000005 0.0240000000000000005 1
0.21875 0.4140625 9.65499999999999936 9.65499999999999936 1
0.2265625 0.4140625 0.0240000000000000005 0.0240000000000000005 1
0.234375 0.4140625 0 0 1
0.2421875 0.4140625 0.164000000000000007 0.164000000000000007 1
0.25 0.4140625 0.177999999999999992 0.177999999999999992 1
0.2578125 0.4140625 9.74200000000000088 9.74200000000000088 1
0.265625 0.4140625 0.0240000000000000005 0.0240000000000000005 1
0.2734375 0.4140625 0 0 1
0.28125 0.4140625 0 0 1
0.2890625 0.4140625 0.0290000000000000015 0.0290000000000000015 1
0.296875 0.4140625 9.90399999999999991 9.90399999999999991 1
0.3046875 0.4140625 0.0240000000000000005 0.0240000000000000005 1
0.3125 0.4140625 0.0240000000000000005 0.0240000000000000005 1
0.3203125 0.4140625 0.0240000000000000005 0.0240000000000000005 1
0.328125 0.4140625 0.0240000000000000005 0.0240000000000000005 1
0.3359375 0.4140625 0.0240000000000000005 0.0240000000000000005 1
0.34375 0.4140625 9.78200000000000003 9.78200000000000003 1
0.3515625 0.4140625 0.153999999999999998 0.153999999999999998 1
0.359375 0.4140625 0.0240000000000000005 0.0240000000000000005 1
0.3671875 0.4140625 9.64799999999999969 9.64799999999999969 1
0.375 0.4140625 9.78200000000000003 9.78200000000000003 1
0.3828125 0.4140625 0.0240000000000000005 0.0240000000000000005 1
0.390625 0.4140625 9.81600000000000072 9.81600000000000072 1
0.3984375 0.4140625 0 0 1
0.40625 0.4140625 0.0200000000000000004 0.0200000000000000004 1
0.4140625 0.4140625 9.64799999999999969 9.64799999999999969 1
0.421875 0.4140625 0.280000000000000027 0.280000000000000027 1
0.4296875 0.4140625 0 0 1
0.4375 0.4140625 9.91699999999999982 9.91699999999999982 1
0.4453125 0.4140625 0.0240000000000000005 0.0240000000000000005 1
0.453125 0.4140625 0.254000000000000004 0.254000000000000004 1
0.4609375 0.4140625 0.151999999999999996 0.151999999999999996 1
0.46875 0.4140625 0.0210000000000000013 0.0210000000000000013 1
0.4765625 0.4140625 0 0 1
0.484375 0.4140625 0.00300000000000000006 0.00300000000000000006 1
0.4921875 0.4140625 0.165000000000000008 0.165000000000000008 1
0.5 0.4140625 0.165000000000000008 0.165000000000000008 1
0.5078125 0.4140625 9.98499999999999943 9.98499999999999943 1
0.515625 0.4140625 9.99399999999999977 9.99399999999999977 1
0.5234375 0.4140625 0.104999999999999996 0.104999999999999996 1
0.53125 0.4140625 0.290999999999999981 0.290999999999999981 1
0.5390625 0.4140625 0.0240000000000000005 0.0240000000000000005 1
0.546875 0.4140625 9.99399999999999977 9.99399999999999977 1
0.5546875 0.4140625 0.227000000000000007 0.227000000000000007 1
0.5625 0.4140625 9.74200000000000088 9.74200000000000088 1
0.5703125 0.4140625 0.165000000000000008 0.165000000000000008 1
0.578125 0.4140625 9.83799999999999919 9.83799999999999919 1
0.5859375 0.4140625 0.202000000000000013 0.202000000000000013 1
0.59375 0.4140625 0.0240000000000000005 0.0240000000000000005 1
0.6015625 0.4140625 9.84600000000000009 9.84600000000000009 1
0.609375 0.4140625 0 0 1
0.6171875 0.4140625 9.83799999999999919 9.83799999999999919 1
0.625 0.4140625 0.00300000000000000006 0.00300000000000000006 1
0.6328125 0.4140625 0.096000000000000002 0.096000000000000002 1
0.640625 0.4140625 0.0700000000000000067 0.0700000000000000067 1
0.6484375 0.4140625 9.83000000000000007 9.83000000000000007 1
0.65625 0.4140625 0.0519999999999999976 0.0519999999999999976 1
0.6640625 0.4140625 9.95400000000000063 9.95400000000000063 1
0.671875 0.4140625 9.98600000000000065 9.98600000000000065 1
0.6796875 0.4140625 0.0240000000000000005 0.0240000000000000005 1
0.6875 0.4140625 0.0240000000000000005 0.0240000000000000005 1
0.6953125 0.4140625 0.119999999999999996 0.119999999999999996 1
0.703125 0.4140625 0.0449999999999999983 0.0449999999999999983 1
0.7109375 0.4140625 0 0 1
0.71875 0.4140625 0.0470000000000000001 0.0470000000000000001 1
0.7265625 0.4140625 9.93099999999999916 9.93099999999999916 1
0.734375 0.4140625 0 0 1
0.7421875 0.4140625 9.84699999999999953 9.84699999999999953 1
0.75 0.4140625 0.0240000000000000005 0.0240000000000000005 1
0.7578125 0.4140625 9.87100000000000044 9.87100000000000044 1
0.765625 0.4140625 9.92800000000000082 9.92800000000000082 1
0.7734375 0.4140625 0.0779999999999999999 0.0779999999999999999 1
0.78125 0.4140625 0.0570000000000000021 0.0570000000000000021 1
0.7890625 0.4140625 0.0490000000000000019 0.0490000000000000019 1
0.796875 0.4140625 0.0690000000000000058 0.0690000000000000058 1
0.8046875 0.4140625 0.458000000000000018 0.458000000000000018 1
0.8125 0.4140625 0.146999999999999992 0.146999999999999992 1
0.8203125 0.4140625 0.0240000000000000005 0.0240000000000000005 1
0.828125 0.4140625 9.80499999999999972 9.80499999999999972 1
0.8359375 0.4140625 0.0240000000000000005 0.0240000000000000005 1
0.84375 0.4140625 9.99600000000000044 9.99600000000000044 1
0.8515625 0.4140625 0.115000000000000005 0.115000000000000005 1
0.859375 0.4140625 0.0240000000000000005 0.0240000000000000005 1
0.8671875 0.4140625 0.165000000000000008 0.165000000000000008 1
0.875 0.4140625 9.88700000000000045 9.88700000000000045 1
0.8828125 0.4140625 0.0700000000000000067 0.0700000000000000067 1
0.890625 0.4140625 0.0240000000000000005 0.0240000000000000005 1
0.8984375 0.4140625 0.0240000000000000005 0.0240000000000000005 1
0.90625 0.4140625 0.00300000000000000006 0.00300000000000000006 1
0.9140625 0.4140625 0.0240000000000000005 0.0240000000000000005 1
0.921875 0.4140625 0.0240000000000000005 0.0240000000000000005 1
0.9296875 0.4140625 9.79899999999999949 9.79899999999999949 1
0.9375 0.4140625 9.5600000000000005 9.5600000000000005 1
0.9453125 0.4140625 9.78200000000000003 9.78200000000000003 1
0.953125 0.4140625 9.8409999999999993 9.8409999999999993 1
0.9609375 0.4140625 0.0240000000000000005 0.0240000000000000005 1
0.96875 0.4140625 0 0 1
0.9765625 0.4140625 9.91600000000000037 9.91600000000000037 1
0.984375 0.4140625 0.246999999999999997 0.246999999999999997 1
0.9921875 0.4140625 0 0 1
0 0.421875 0.0240000000000000005 0.0240000000000000005 1
0.0078125 0.421875 0.00300000000000000006 0.00300000000000000006 1
0.015625 0.421875 9.64799999999999969 9.64799999999999969 1
0.0234375 0.421875 0.0240000000000000005 0.0240000000000000005 1
0.03125 0.421875 0.00300000000000000006 0.00300000000000000006 1
0.0390625 0.421875 0 0 1
0.046875 0.421875 0.0240000000000000005 0.0240000000000000005 1
0.0546875 0.421875 0.0700000000000000067 0.0700000000000000067 1
0.0625 0.421875 9.8490000000000002 9.8490000000000002 1
0.0703125 0.421875 0.0240000000000000005 0.0240000000000000005 1
0.078125 0.421875 9.78299999999999947 9.78299999999999947 1
0.0859375 0.421875 0.00300000000000000006 0.00300000000000000006 1
0.09375 0.421875 9.77699999999999925 9.77699999999999925 1
0.1015625 0.421875 0.0240000000000000005 0.0240000000000000005 1
0.109375 0.421875 9.98799999999999955 9.98799999999999955 1
0.1171875 0.421875 0.0240000000000000005 0.0240000000000000005 1
0.125 0.421875 0.0240000000000000005 0.0240000000000000005 1
0.1328125 0.421875 9.78999999999999915 9.78999999999999915 1
0.140625 0.421875 9.74200000000000088 9.74200000000000088 1
0.1484375 0.421875 0 0 1
0.15625 0.421875 0.00300000000000000006 0.00300000000000000006 1
0.1640625 0.421875 0.0309999999999999998 0.0309999999999999998 1
0.171875 0.421875 0.0619999999999999996 0.0619999999999999996 1
0.1796875 0.421875 9.90700000000000003 9.90700000000000003 1
0.1875 0.421875 0.0240000000000000005 0.0240000000000000005 1
0.1953125 0.421875 0.0240000000000000005 0.0240000000000000005 1
