ply
format ascii 1.0
element vertex 789
property double x
property double y
property double z
property double depth
property double albedo
end_header
0.5703125 0.328125 8.85200000000000031 8.85200000000000031 1
0.578125 0.328125 8.99799999999999933 8.99799999999999933 1
0.5859375 0.328125 9.04499999999999993 9.04499999999999993 1
0.59375 0.328125 9.08999999999999986 9.08999999999999986 1
0.6015625 0.328125 8.84800000000000075 8.84800000000000075 1
0.609375 0.328125 9.02999999999999936 9.02999999999999936 1
0.6171875 0.328125 8.87299999999999933 8.87299999999999933 1
0.625 0.328125 8.94299999999999962 8.94299999999999962 1
0.6328125 0.328125 8.74600000000000044 8.74600000000000044 1
0.640625 0.328125 8.94299999999999962 8.94299999999999962 1
0.6484375 0.328125 8.77500000000000036 8.77500000000000036 1
0.65625 0.328125 8.90700000000000003 8.90700000000000003 1
0.6640625 0.328125 8.87700000000000067 8.87700000000000067 1
0.671875 0.328125 9.00500000000000078 9.00500000000000078 1
0.6796875 0.328125 8.94299999999999962 8.94299999999999962 1
0.6875 0.328125 8.90700000000000003 8.90700000000000003 1
0.6953125 0.328125 8.99799999999999933 8.99799999999999933 1
0.703125 0.328125 8.87199999999999989 8.87199999999999989 1
0.7109375 0.328125 8.74600000000000044 8.74600000000000044 1
0.71875 0.328125 9.09600000000000009 9.09600000000000009 1
0.7265625 0.328125 9.11700000000000088 9.11700000000000088 1
0.734375 0.328125 8.73399999999999999 8.73399999999999999 1
0.7421875 0.328125 8.74600000000000044 8.74600000000000044 1
0.75 0.328125 9.10599999999999987 9.10599999999999987 1
0.7578125 0.328125 8.69999999999999929 8.69999999999999929 1
0.765625 0.328125 8.58000000000000007 8.58000000000000007 1
0.7734375 0.328125 8.88299999999999912 8.88299999999999912 1
0.78125 0.328125 8.77500000000000036 8.77500000000000036 1
0.7890625 0.328125 8.77500000000000036 8.77500000000000036 1
0.796875 0.328125 8.86700000000000088 8.86700000000000088 1
0.8046875 0.328125 8.74799999999999933 8.74799999999999933 1
0.8125 0.328125 8.98099999999999987 8.98099999999999987 1
0.8203125 0.328125 9.15000000000000036 9.15000000000000036 1
0.828125 0.328125 8.74600000000000044 8.74600000000000044 1
0.8359375 0.328125 8.95500000000000007 8.95500000000000007 1
0.84375 0.328125 8.9789999999999992 8.9789999999999992 1
0.8515625 0.328125 8.74600000000000044 8.74600000000000044 1
0.859375 0.328125 9.03200000000000003 9.03200000000000003 1
0.8671875 0.328125 8.95599999999999952 8.95599999999999952 1
0.875 0.328125 9.0860000000000003 9.0860000000000003 1
0.8828125 0.328125 8.74600000000000044 8.74600000000000044 1
0.890625 0.328125 8.95400000000000063 8.95400000000000063 1
0.8984375 0.328125 8.92900000000000027 8.92900000000000027 1
0.90625 0.328125 8.5519999999999996 8.5519999999999996 1
0.9140625 0.328125 8.85100000000000087 8.85100000000000087 1
0.921875 0.328125 9.09600000000000009 9.09600000000000009 1
0.9296875 0.328125 8.65399999999999991 8.65399999999999991 1
0.9375 0.328125 8.6509999999999998 8.6509999999999998 1
0.9453125 0.328125 8.74600000000000044 8.74600000000000044 1
0.953125 0.328125 8.74600000000000044 8.74600000000000044 1
0.9609375 0.328125 8.94599999999999973 8.94599999999999973 1
0.96875 0.328125 8.76999999999999957 8.76999999999999957 1
0.9765625 0.328125 8.94299999999999962 8.94299999999999962 1
0.984375 0.328125 8.54199999999999982 8.54199999999999982 1
0.9921875 0.328125 8.94299999999999962 8.94299999999999962 1
0 0.3359375 8.74600000000000044 8.74600000000000044 1
0.0078125 0.3359375 9.09600000000000009 9.09600000000000009 1
0.015625 0.3359375 8.86599999999999966 8.86599999999999966 1
0.0234375 0.3359375 9.09399999999999942 9.09399999999999942 1
0.03125 0.3359375 8.74600000000000044 8.74600000000000044 1
0.0390625 0.3359375 8.85100000000000087 8.85100000000000087 1
0.046875 0.3359375 8.8409999999999993 8.8409999999999993 1
0.0546875 0.3359375 9.0860000000000003 9.0860000000000003 1
0.0625 0.3359375 9.09600000000000009 9.09600000000000009 1
0.0703125 0.3359375 9.20199999999999996 9.20199999999999996 1
0.078125 0.3359375 8.74600000000000044 8.74600000000000044 1
0.0859375 0.3359375 9.07199999999999918 9.07199999999999918 1
0.09375 0.3359375 8.7240000000000002 8.7240000000000002 1
0.1015625 0.3359375 8.80599999999999916 8.80599999999999916 1
0.109375 0.3359375 8.72700000000000031 8.72700000000000031 1
0.1171875 0.3359375 9.09600000000000009 9.09600000000000009 1
0.125 0.3359375 9.09600000000000009 9.09600000000000009 1
0.1328125 0.3359375 9.09600000000000009 9.09600000000000009 1
0.140625 0.3359375 8.71499999999999986 8.71499999999999986 1
0.1484375 0.3359375 8.36999999999999922 8.36999999999999922 1
0.15625 0.3359375 8.94299999999999962 8.94299999999999962 1
0.1640625 0.3359375 8.67600000000000016 8.67600000000000016 1
0.171875 0.3359375 8.80700000000000038 8.80700000000000038 1
0.1796875 0.3359375 8.92999999999999972 8.92999999999999972 1
0.1875 0.3359375 8.95400000000000063 8.95400000000000063 1
0.1953125 0.3359375 9.09600000000000009 9.09600000000000009 1
0.203125 0.3359375 8.79899999999999949 8.79899999999999949 1
0.2109375 0.3359375 8.98099999999999987 8.98099999999999987 1
0.21875 0.3359375 8.83799999999999919 8.83799999999999919 1
0.2265625 0.3359375 8.74600000000000044 8.74600000000000044 1
0.234375 0.3359375 8.74600000000000044 8.74600000000000044 1
0.2421875 0.3359375 8.94299999999999962 8.94299999999999962 1
0.25 0.3359375 8.89100000000000001 8.89100000000000001 1
0.2578125 0.3359375 8.94299999999999962 8.94299999999999962 1
0.265625 0.3359375 8.74600000000000044 8.74600000000000044 1
0.2734375 0.3359375 9.08399999999999963 9.08399999999999963 1
0.28125 0.3359375 8.9789999999999992 8.9789999999999992 1
0.2890625 0.3359375 8.94599999999999973 8.94599999999999973 1
0.296875 0.3359375 8.74600000000000044 8.74600000000000044 1
0.3046875 0.3359375 9.16099999999999959 9.16099999999999959 1
0.3125 0.3359375 9.09600000000000009 9.09600000000000009 1
0.3203125 0.3359375 8.9870000000000001 8.9870000000000001 1
0.328125 0.3359375 9.09600000000000009 9.09600000000000009 1
0.3359375 0.3359375 8.74600000000000044 8.74600000000000044 1
0.34375 0.3359375 8.99799999999999933 8.99799999999999933 1
0.3515625 0.3359375 9.09600000000000009 9.09600000000000009 1
0.359375 0.3359375 8.94299999999999962 8.94299999999999962 1
0.3671875 0.3359375 8.78500000000000014 8.78500000000000014 1
0.375 0.3359375 8.94299999999999962 8.94299999999999962 1
0.3828125 0.3359375 8.94599999999999973 8.94599999999999973 1
0.390625 0.3359375 8.9870000000000001 8.9870000000000001 1
0.3984375 0.3359375 8.65600000000000058 8.65600000000000058 1
0.40625 0.3359375 8.6850000000000005 8.6850000000000005 1
0.4140625 0.3359375 8.90799999999999947 8.90799999999999947 1
0.421875 0.3359375 8.99399999999999977 8.99399999999999977 1
0.4296875 0.3359375 8.77500000000000036 8.77500000000000036 1
0.4375 0.3359375 9.12199999999999989 9.12199999999999989 1
0.4453125 0.3359375 8.79599999999999937 8.79599999999999937 1
0.453125 0.3359375 8.85299999999999976 8.85299999999999976 1
0.4609375 0.3359375 9.05700000000000038 9.05700000000000038 1
0.46875 0.3359375 8.9090000000000007 8.9090000000000007 1
0.4765625 0.3359375 8.94299999999999962 8.94299999999999962 1
0.484375 0.3359375 9.05300000000000082 9.05300000000000082 1
0.4921875 0.3359375 8.74600000000000044 8.74600000000000044 1
0.5 0.3359375 8.83699999999999974 8.83699999999999974 1
0.5078125 0.3359375 8.95400000000000063 8.95400000000000063 1
0.515625 0.3359375 8.94299999999999962 8.94299999999999962 1
0.5234375 0.3359375 8.9139999999999997 8.9139999999999997 1
0.53125 0.3359375 8.95700000000000074 8.95700000000000074 1
0.5390625 0.3359375 8.8409999999999993 8.8409999999999993 1
0.546875 0.3359375 8.94299999999999962 8.94299999999999962 1
0.5546875 0.3359375 8.99099999999999966 8.99099999999999966 1
0.5625 0.3359375 9.09600000000000009 9.09600000000000009 1
0.5703125 0.3359375 9.03299999999999947 9.03299999999999947 1
0.578125 0.3359375 8.94299999999999962 8.94299999999999962 1
0.5859375 0.3359375 8.94299999999999962 8.94299999999999962 1
0.59375 0.3359375 8.79499999999999993 8.79499999999999993 1
0.6015625 0.3359375 9.00600000000000023 9.00600000000000023 1
0.609375 0.3359375 9.09600000000000009 9.09600000000000009 1
0.6171875 0.3359375 8.94299999999999962 8.94299999999999962 1
0.625 0.3359375 8.74600000000000044 8.74600000000000044 1
0.6328125 0.3359375 8.86700000000000088 8.86700000000000088 1
0.640625 0.3359375 8.74600000000000044 8.74600000000000044 1
0.6484375 0.3359375 8.74600000000000044 8.74600000000000044 1
0.65625 0.3359375 9.2289999999999992 9.2289999999999992 1
0.6640625 0.3359375 8.94299999999999962 8.94299999999999962 1
0.671875 0.3359375 8.92099999999999937 8.92099999999999937 1
0.6796875 0.3359375 8.74600000000000044 8.74600000000000044 1
0.6875 0.3359375 8.81300000000000061 8.81300000000000061 1
0.6953125 0.3359375 8.86899999999999977 8.86899999999999977 1
0.703125 0.3359375 8.75200000000000067 8.75200000000000067 1
0.7109375 0.3359375 8.74600000000000044 8.74600000000000044 1
0.71875 0.3359375 9.0600000000000005 9.0600000000000005 1
0.7265625 0.3359375 8.86700000000000088 8.86700000000000088 1
0.734375 0.3359375 9.13400000000000034 9.13400000000000034 1
0.7421875 0.3359375 8.85500000000000043 8.85500000000000043 1
0.75 0.3359375 8.74600000000000044 8.74600000000000044 1
0.7578125 0.3359375 8.74600000000000044 8.74600000000000044 1
0.765625 0.3359375 8.85299999999999976 8.85299999999999976 1
0.7734375 0.3359375 8.78500000000000014 8.78500000000000014 1
0.78125 0.3359375 9.09600000000000009 9.09600000000000009 1
0.7890625 0.3359375 8.65499999999999936 8.65499999999999936 1
0.796875 0.3359375 8.94299999999999962 8.94299999999999962 1
0.8046875 0.3359375 9.09600000000000009 9.09600000000000009 1
0.8125 0.3359375 9.10200000000000031 9.10200000000000031 1
0.8203125 0.3359375 8.86700000000000088 8.86700000000000088 1
0.828125 0.3359375 8.94299999999999962 8.94299999999999962 1
0.8359375 0.3359375 8.71299999999999919 8.71299999999999919 1
0.84375 0.3359375 8.74600000000000044 8.74600000000000044 1
0.8515625 0.3359375 8.70800000000000018 8.70800000000000018 1
0.859375 0.3359375 8.98000000000000043 8.98000000000000043 1
0.8671875 0.3359375 8.94299999999999962 8.94299999999999962 1
0.875 0.3359375 8.78700000000000081 8.78700000000000081 1
0.8828125 0.3359375 9.24000000000000021 9.24000000000000021 1
0.890625 0.3359375 8.86700000000000088 8.86700000000000088 1
0.8984375 0.3359375 9.01600000000000001 9.01600000000000001 1
0.90625 0.3359375 8.99799999999999933 8.99799999999999933 1
0.9140625 0.3359375 9.03599999999999959 9.03599999999999959 1
0.921875 0.3359375 9.09600000000000009 9.09600000000000009 1
0.9296875 0.3359375 8.98399999999999999 8.98399999999999999 1
0.9375 0.3359375 8.94200000000000017 8.94200000000000017 1
0.9453125 0.3359375 9.09600000000000009 9.09600000000000009 1
0.953125 0.3359375 8.74600000000000044 8.74600000000000044 1
0.9609375 0.3359375 8.5519999999999996 8.5519999999999996 1
0.96875 0.3359375 8.74600000000000044 8.74600000000000044 1
0.9765625 0.3359375 8.74600000000000044 8.74600000000000044 1
0.984375 0.3359375 8.80599999999999916 8.80599999999999916 1
0.9921875 0.3359375 9.06900000000000084 9.06900000000000084 1
0 0.34375 8.88700000000000045 8.88700000000000045 1
0.0078125 0.34375 8.98099999999999987 8.98099999999999987 1
0.015625 0.34375 8.79899999999999949 8.79899999999999949 1
0.0234375 0.34375 8.78500000000000014 8.78500000000000014 1
0.03125 0.34375 8.92800000000000082 8.92800000000000082 1
0.0390625 0.34375 8.94299999999999962 8.94299999999999962 1
0.046875 0.34375 9.05700000000000038 9.05700000000000038 1
0.0546875 0.34375 8.92900000000000027 8.92900000000000027 1
0.0625 0.34375 8.9870000000000001 8.9870000000000001 1
0.0703125 0.34375 8.80799999999999983 8.80799999999999983 1
0.078125 0.34375 8.95100000000000051 8.95100000000000051 1
0.0859375 0.34375 8.74600000000000044 8.74600000000000044 1
0.09375 0.34375 8.99099999999999966 8.99099999999999966 1
0.1015625 0.34375 8.88599999999999923 8.88599999999999923 1
0.109375 0.34375 9.09600000000000009 9.09600000000000009 1
0.1171875 0.34375 9.02500000000000036 9.02500000000000036 1
0.125 0.34375 8.7759999999999998 8.7759999999999998 1
0.1328125 0.34375 8.9350000000000005 8.9350000000000005 1
0.140625 0.34375 8.94299999999999962 8.94299999999999962 1
0.1484375 0.34375 8.8230000000000004 8.8230000000000004 1
0.15625 0.34375 8.9350000000000005 8.9350000000000005 1
0.1640625 0.34375 8.78800000000000026 8.78800000000000026 1
0.171875 0.34375 8.74600000000000044 8.74600000000000044 1
0.1796875 0.34375 9.03200000000000003 9.03200000000000003 1
0.1875 0.34375 8.90700000000000003 8.90700000000000003 1
0.1953125 0.34375 8.90700000000000003 8.90700000000000003 1
0.203125 0.34375 9.1120000000000001 9.1120000000000001 1
0.2109375 0.34375 8.75699999999999967 8.75699999999999967 1
0.21875 0.34375 9.09600000000000009 9.09600000000000009 1
0.2265625 0.34375 8.71499999999999986 8.71499999999999986 1
0.234375 0.34375 9.0860000000000003 9.0860000000000003 1
0.2421875 0.34375 8.91699999999999982 8.91699999999999982 1
0.25 0.34375 9.1460000000000008 9.1460000000000008 1
0.2578125 0.34375 8.74600000000000044 8.74600000000000044 1
0.265625 0.34375 9.09600000000000009 9.09600000000000009 1
0.2734375 0.34375 8.70400000000000063 8.70400000000000063 1
0.28125 0.34375 9.0860000000000003 9.0860000000000003 1
0.2890625 0.34375 8.92300000000000004 8.92300000000000004 1
0.296875 0.34375 8.74600000000000044 8.74600000000000044 1
0.3046875 0.34375 9.14499999999999957 9.14499999999999957 1
0.3125 0.34375 9.26399999999999935 9.26399999999999935 1
0.3203125 0.34375 9.09600000000000009 9.09600000000000009 1
0.328125 0.34375 8.69699999999999918 8.69699999999999918 1
0.3359375 0.34375 9.05499999999999972 9.05499999999999972 1
0.34375 0.34375 9.0860000000000003 9.0860000000000003 1
0.3515625 0.34375 9.0860000000000003 9.0860000000000003 1
0.359375 0.34375 8.65499999999999936 8.65499999999999936 1
0.3671875 0.34375 8.6639999999999997 8.6639999999999997 1
0.375 0.34375 8.98099999999999987 8.98099999999999987 1
0.3828125 0.34375 8.8360000000000003 8.8360000000000003 1
0.390625 0.34375 8.83399999999999963 8.83399999999999963 1
0.3984375 0.34375 8.96700000000000053 8.96700000000000053 1
0.40625 0.34375 9.0389999999999997 9.0389999999999997 1
0.4140625 0.34375 8.92600000000000016 8.92600000000000016 1
0.421875 0.34375 8.92900000000000027 8.92900000000000027 1
0.4296875 0.34375 8.93399999999999928 8.93399999999999928 1
0.4375 0.34375 8.81099999999999994 8.81099999999999994 1
0.4453125 0.34375 8.6899999999999995 8.6899999999999995 1
0.453125 0.34375 9.18699999999999939 9.18699999999999939 1
0.4609375 0.34375 8.74600000000000044 8.74600000000000044 1
0.46875 0.34375 9.01600000000000001 9.01600000000000001 1
0.4765625 0.34375 9.09600000000000009 9.09600000000000009 1
0.484375 0.34375 9.09600000000000009 9.09600000000000009 1
0.4921875 0.34375 8.74600000000000044 8.74600000000000044 1
0.5 0.34375 8.81700000000000017 8.81700000000000017 1
0.5078125 0.34375 8.79899999999999949 8.79899999999999949 1
0.515625 0.34375 8.84699999999999953 8.84699999999999953 1
0.5234375 0.34375 8.74600000000000044 8.74600000000000044 1
0.53125 0.34375 8.92800000000000082 8.92800000000000082 1
0.5390625 0.34375 8.74600000000000044 8.74600000000000044 1
0.546875 0.34375 8.75999999999999979 8.75999999999999979 1
0.5546875 0.34375 8.7240000000000002 8.7240000000000002 1
0.5625 0.34375 8.80599999999999916 8.80599999999999916 1
0.5703125 0.34375 8.76699999999999946 8.76699999999999946 1
0.578125 0.34375 8.74600000000000044 8.74600000000000044 1
0.5859375 0.34375 8.86599999999999966 8.86599999999999966 1
0.59375 0.34375 8.94299999999999962 8.94299999999999962 1
0.6015625 0.34375 9.10800000000000054 9.10800000000000054 1
0.609375 0.34375 8.91499999999999915 8.91499999999999915 1
0.6171875 0.34375 8.90700000000000003 8.90700000000000003 1
0.625 0.34375 8.6509999999999998 8.6509999999999998 1
0.6328125 0.34375 8.90000000000000036 8.90000000000000036 1
0.640625 0.34375 8.86700000000000088 8.86700000000000088 1
0.6484375 0.34375 8.78500000000000014 8.78500000000000014 1
0.65625 0.34375 8.70700000000000074 8.70700000000000074 1
0.6640625 0.34375 8.87400000000000055 8.87400000000000055 1
0.671875 0.34375 9.09600000000000009 9.09600000000000009 1
0.6796875 0.34375 8.90700000000000003 8.90700000000000003 1
0.6875 0.34375 8.92900000000000027 8.92900000000000027 1
0.6953125 0.34375 8.83699999999999974 8.83699999999999974 1
0.703125 0.34375 8.8279999999999994 8.8279999999999994 1
0.7109375 0.34375 8.74600000000000044 8.74600000000000044 1
0.71875 0.34375 9.02500000000000036 9.02500000000000036 1
0.7265625 0.34375 8.83900000000000041 8.83900000000000041 1
0.734375 0.34375 8.56199999999999939 8.56199999999999939 1
0.7421875 0.34375 8.98099999999999987 8.98099999999999987 1
0.75 0.34375 8.74600000000000044 8.74600000000000044 1
0.7578125 0.34375 8.78500000000000014 8.78500000000000014 1
0.765625 0.34375 8.94299999999999962 8.94299999999999962 1
0.7734375 0.34375 8.73399999999999999 8.73399999999999999 1
0.78125 0.34375 8.89899999999999913 8.89899999999999913 1
0.7890625 0.34375 8.73399999999999999 8.73399999999999999 1
0.796875 0.34375 8.99799999999999933 8.99799999999999933 1
0.8046875 0.34375 8.88100000000000023 8.88100000000000023 1
0.8125 0.34375 8.9740000000000002 8.9740000000000002 1
0.8203125 0.34375 8.74600000000000044 8.74600000000000044 1
0.828125 0.34375 8.94299999999999962 8.94299999999999962 1
0.8359375 0.34375 8.94299999999999962 8.94299999999999962 1
0.84375 0.34375 8.81799999999999962 8.81799999999999962 1
0.8515625 0.34375 8.90700000000000003 8.90700000000000003 1
0.859375 0.34375 8.91000000000000014 8.91000000000000014 1
0.8671875 0.34375 9.05899999999999928 9.05899999999999928 1
0.875 0.34375 9.06199999999999939 9.06199999999999939 1
0.8828125 0.34375 8.98000000000000043 8.98000000000000043 1
0.890625 0.34375 9.00500000000000078 9.00500000000000078 1
0.8984375 0.34375 8.85999999999999943 8.85999999999999943 1
0.90625 0.34375 8.95400000000000063 8.95400000000000063 1
0.9140625 0.34375 8.98099999999999987 8.98099999999999987 1
0.921875 0.34375 9.19899999999999984 9.19899999999999984 1
0.9296875 0.34375 8.86800000000000033 8.86800000000000033 1
0.9375 0.34375 8.74600000000000044 8.74600000000000044 1
0.9453125 0.34375 9.00900000000000034 9.00900000000000034 1
0.953125 0.34375 8.94200000000000017 8.94200000000000017 1
0.9609375 0.34375 8.84699999999999953 8.84699999999999953 1
0.96875 0.34375 8.74600000000000044 8.74600000000000044 1
0.9765625 0.34375 8.86700000000000088 8.86700000000000088 1
0.984375 0.34375 8.73799999999999955 8.73799999999999955 1
0.9921875 0.34375 8.69999999999999929 8.69999999999999929 1
0 0.3515625 8.59699999999999953 8.59699999999999953 1
0.0078125 0.3515625 8.91099999999999959 8.91099999999999959 1
0.015625 0.3515625 8.8100000000000005 8.8100000000000005 1
0.0234375 0.3515625 9.03299999999999947 9.03299999999999947 1
0.03125 0.3515625 8.98099999999999987 8.98099999999999987 1
0.0390625 0.3515625 9.09600000000000009 9.09600000000000009 1
0.046875 0.3515625 8.85800000000000054 8.85800000000000054 1
0.0546875 0.3515625 8.80599999999999916 8.80599999999999916 1
0.0625 0.3515625 8.80300000000000082 8.80300000000000082 1
0.0703125 0.3515625 9.00200000000000067 9.00200000000000067 1
0.078125 0.3515625 8.82499999999999929 8.82499999999999929 1
0.0859375 0.3515625 8.74600000000000044 8.74600000000000044 1
0.09375 0.3515625 8.84999999999999964 8.84999999999999964 1
0.1015625 0.3515625 8.84399999999999942 8.84399999999999942 1
0.109375 0.3515625 8.86700000000000088 8.86700000000000088 1
0.1171875 0.3515625 8.80599999999999916 8.80599999999999916 1
0.125 0.3515625 8.74600000000000044 8.74600000000000044 1
0.1328125 0.3515625 8.74600000000000044 8.74600000000000044 1
0.140625 0.3515625 8.99399999999999977 8.99399999999999977 1
0.1484375 0.3515625 8.99799999999999933 8.99799999999999933 1
0.15625 0.3515625 8.87199999999999989 8.87199999999999989 1
0.1640625 0.3515625 9.00300000000000011 9.00300000000000011 1
0.171875 0.3515625 9.09600000000000009 9.09600000000000009 1
0.1796875 0.3515625 8.97700000000000031 8.97700000000000031 1
0.1875 0.3515625 8.96299999999999919 8.96299999999999919 1
0.1953125 0.3515625 8.92900000000000027 8.92900000000000027 1
0.203125 0.3515625 9.14899999999999913 9.14899999999999913 1
0.2109375 0.3515625 8.85299999999999976 8.85299999999999976 1
0.21875 0.3515625 8.99799999999999933 8.99799999999999933 1
0.2265625 0.3515625 8.99799999999999933 8.99799999999999933 1
0.234375 0.3515625 8.88700000000000045 8.88700000000000045 1
0.2421875 0.3515625 9.1590000000000007 9.1590000000000007 1
0.25 0.3515625 8.74600000000000044 8.74600000000000044 1
0.2578125 0.3515625 8.87700000000000067 8.87700000000000067 1
0.265625 0.3515625 9.11800000000000033 9.11800000000000033 1
0.2734375 0.3515625 8.90700000000000003 8.90700000000000003 1
0.28125 0.3515625 8.98099999999999987 8.98099999999999987 1
0.2890625 0.3515625 8.94299999999999962 8.94299999999999962 1
0.296875 0.3515625 8.74600000000000044 8.74600000000000044 1
0.3046875 0.3515625 8.99799999999999933 8.99799999999999933 1
0.3125 0.3515625 9.01200000000000045 9.01200000000000045 1
0.3203125 0.3515625 8.74600000000000044 8.74600000000000044 1
0.328125 0.3515625 9.09600000000000009 9.09600000000000009 1
0.3359375 0.3515625 8.91600000000000037 8.91600000000000037 1
0.34375 0.3515625 8.86599999999999966 8.86599999999999966 1
0.3515625 0.3515625 8.96400000000000041 8.96400000000000041 1
0.359375 0.3515625 9.04899999999999949 9.04899999999999949 1
0.3671875 0.3515625 8.83399999999999963 8.83399999999999963 1
0.375 0.3515625 8.98099999999999987 8.98099999999999987 1
0.3828125 0.3515625 8.72199999999999953 8.72199999999999953 1
0.390625 0.3515625 8.66600000000000037 8.66600000000000037 1
0.3984375 0.3515625 9.05799999999999983 9.05799999999999983 1
0.40625 0.3515625 8.94299999999999962 8.94299999999999962 1
0.4140625 0.3515625 8.78500000000000014 8.78500000000000014 1
0.421875 0.3515625 9.01900000000000013 9.01900000000000013 1
0.4296875 0.3515625 8.6769999999999996 8.6769999999999996 1
0.4375 0.3515625 9.0860000000000003 9.0860000000000003 1
0.4453125 0.3515625 8.89700000000000024 8.89700000000000024 1
0.453125 0.3515625 8.74600000000000044 8.74600000000000044 1
0.4609375 0.3515625 9.125 9.125 1
0.46875 0.3515625 8.76699999999999946 8.76699999999999946 1
0.4765625 0.3515625 8.90199999999999925 8.90199999999999925 1
0.484375 0.3515625 9.0860000000000003 9.0860000000000003 1
0.4921875 0.3515625 8.55499999999999972 8.55499999999999972 1
0.5 0.3515625 9.00900000000000034 9.00900000000000034 1
0.5078125 0.3515625 8.85800000000000054 8.85800000000000054 1
0.515625 0.3515625 8.69999999999999929 8.69999999999999929 1
0.5234375 0.3515625 8.83000000000000007 8.83000000000000007 1
0.53125 0.3515625 8.56700000000000017 8.56700000000000017 1
0.5390625 0.3515625 8.74600000000000044 8.74600000000000044 1
0.546875 0.3515625 8.68900000000000006 8.68900000000000006 1
0.5546875 0.3515625 9.01200000000000045 9.01200000000000045 1
0.5625 0.3515625 8.74600000000000044 8.74600000000000044 1
0.5703125 0.3515625 8.74600000000000044 8.74600000000000044 1
0.578125 0.3515625 8.83399999999999963 8.83399999999999963 1
0.5859375 0.3515625 9.09600000000000009 9.09600000000000009 1
0.59375 0.3515625 8.74600000000000044 8.74600000000000044 1
0.6015625 0.3515625 8.75099999999999945 8.75099999999999945 1
0.609375 0.3515625 8.65499999999999936 8.65499999999999936 1
0.6171875 0.3515625 8.87199999999999989 8.87199999999999989 1
0.625 0.3515625 8.99000000000000021 8.99000000000000021 1
0.6328125 0.3515625 8.96499999999999986 8.96499999999999986 1
0.640625 0.3515625 9.10699999999999932 9.10699999999999932 1
0.6484375 0.3515625 8.59500000000000064 8.59500000000000064 1
0.65625 0.3515625 8.94299999999999962 8.94299999999999962 1
0.6640625 0.3515625 8.80599999999999916 8.80599999999999916 1
0.671875 0.3515625 8.69999999999999929 8.69999999999999929 1
0.6796875 0.3515625 8.96000000000000085 8.96000000000000085 1
0.6875 0.3515625 9.15399999999999991 9.15399999999999991 1
0.6953125 0.3515625 8.80700000000000038 8.80700000000000038 1
0.703125 0.3515625 9.08300000000000018 9.08300000000000018 1
0.7109375 0.3515625 8.79899999999999949 8.79899999999999949 1
0.71875 0.3515625 9.19400000000000084 9.19400000000000084 1
0.7265625 0.3515625 8.93099999999999916 8.93099999999999916 1
0.734375 0.3515625 8.74600000000000044 8.74600000000000044 1
0.7421875 0.3515625 9.09600000000000009 9.09600000000000009 1
0.75 0.3515625 8.98399999999999999 8.98399999999999999 1
0.7578125 0.3515625 8.82600000000000051 8.82600000000000051 1
0.765625 0.3515625 9.07099999999999973 9.07099999999999973 1
0.7734375 0.3515625 9.09600000000000009 9.09600000000000009 1
0.78125 0.3515625 8.74600000000000044 8.74600000000000044 1
0.7890625 0.3515625 9.0860000000000003 9.0860000000000003 1
0.796875 0.3515625 8.95500000000000007 8.95500000000000007 1
0.8046875 0.3515625 8.74600000000000044 8.74600000000000044 1
0.8125 0.3515625 8.8539999999999992 8.8539999999999992 1
0.8203125 0.3515625 8.74600000000000044 8.74600000000000044 1
0.828125 0.3515625 9.13700000000000045 9.13700000000000045 1
0.8359375 0.3515625 9.09600000000000009 9.09600000000000009 1
0.84375 0.3515625 8.77999999999999936 8.77999999999999936 1
0.8515625 0.3515625 8.74600000000000044 8.74600000000000044 1
0.859375 0.3515625 8.74600000000000044 8.74600000000000044 1
0.8671875 0.3515625 8.94299999999999962 8.94299999999999962 1
0.875 0.3515625 9.0860000000000003 9.0860000000000003 1
0.8828125 0.3515625 8.86599999999999966 8.86599999999999966 1
0.890625 0.3515625 8.8960000000000008 8.8960000000000008 1
0.8984375 0.3515625 8.74600000000000044 8.74600000000000044 1
0.90625 0.3515625 8.92900000000000027 8.92900000000000027 1
0.9140625 0.3515625 8.82900000000000063 8.82900000000000063 1
0.921875 0.3515625 8.86100000000000065 8.86100000000000065 1
0.9296875 0.3515625 8.98099999999999987 8.98099999999999987 1
0.9375 0.3515625 8.74600000000000044 8.74600000000000044 1
0.9453125 0.3515625 8.9870000000000001 8.9870000000000001 1
0.953125 0.3515625 9.02299999999999969 9.02299999999999969 1
0.9609375 0.3515625 8.63899999999999935 8.63899999999999935 1
0.96875 0.3515625 8.77500000000000036 8.77500000000000036 1
0.9765625 0.3515625 9.23499999999999943 9.23499999999999943 1
0.984375 0.3515625 9.23099999999999987 9.23099999999999987 1
0.9921875 0.3515625 8.94299999999999962 8.94299999999999962 1
0 0.359375 9.09600000000000009 9.09600000000000009 1
0.0078125 0.359375 8.99799999999999933 8.99799999999999933 1
0.015625 0.359375 8.94299999999999962 8.94299999999999962 1
0.0234375 0.359375 8.98099999999999987 8.98099999999999987 1
0.03125 0.359375 8.99499999999999922 8.99499999999999922 1
0.0390625 0.359375 8.88199999999999967 8.88199999999999967 1
0.046875 0.359375 9.0340000000000007 9.0340000000000007 1
0.0546875 0.359375 8.94299999999999962 8.94299999999999962 1
0.0625 0.359375 8.94299999999999962 8.94299999999999962 1
0.0703125 0.359375 8.85999999999999943 8.85999999999999943 1
0.078125 0.359375 8.86899999999999977 8.86899999999999977 1
0.0859375 0.359375 9.12899999999999956 9.12899999999999956 1
0.09375 0.359375 8.94299999999999962 8.94299999999999962 1
0.1015625 0.359375 8.74600000000000044 8.74600000000000044 1
0.109375 0.359375 8.94299999999999962 8.94299999999999962 1
0.1171875 0.359375 8.84699999999999953 8.84699999999999953 1
0.125 0.359375 8.85500000000000043 8.85500000000000043 1
0.1328125 0.359375 8.5600000000000005 8.5600000000000005 1
0.140625 0.359375 8.73099999999999987 8.73099999999999987 1
0.1484375 0.359375 8.94299999999999962 8.94299999999999962 1
0.15625 0.359375 8.99799999999999933 8.99799999999999933 1
0.1640625 0.359375 9.12100000000000044 9.12100000000000044 1
0.171875 0.359375 8.94299999999999962 8.94299999999999962 1
0.1796875 0.359375 8.99799999999999933 8.99799999999999933 1
0.1875 0.359375 9.09600000000000009 9.09600000000000009 1
0.1953125 0.359375 8.98099999999999987 8.98099999999999987 1
0.203125 0.359375 8.79899999999999949 8.79899999999999949 1
0.2109375 0.359375 8.80400000000000027 8.80400000000000027 1
0.21875 0.359375 8.74600000000000044 8.74600000000000044 1
0.2265625 0.359375 8.7240000000000002 8.7240000000000002 1
0.234375 0.359375 9.10999999999999943 9.10999999999999943 1
0.2421875 0.359375 9.15600000000000058 9.15600000000000058 1
0.25 0.359375 8.85699999999999932 8.85699999999999932 1
0.2578125 0.359375 9.13700000000000045 9.13700000000000045 1
0.265625 0.359375 9.09600000000000009 9.09600000000000009 1
0.2734375 0.359375 9.10599999999999987 9.10599999999999987 1
0.28125 0.359375 8.99799999999999933 8.99799999999999933 1
0.2890625 0.359375 8.6509999999999998 8.6509999999999998 1
0.296875 0.359375 8.77500000000000036 8.77500000000000036 1
0.3046875 0.359375 9.04299999999999926 9.04299999999999926 1
0.3125 0.359375 8.96400000000000041 8.96400000000000041 1
0.3203125 0.359375 8.85200000000000031 8.85200000000000031 1
0.328125 0.359375 9.12800000000000011 9.12800000000000011 1
0.3359375 0.359375 8.64700000000000024 8.64700000000000024 1
0.34375 0.359375 8.6509999999999998 8.6509999999999998 1
0.3515625 0.359375 9.17999999999999972 9.17999999999999972 1
0.359375 0.359375 8.74600000000000044 8.74600000000000044 1
0.3671875 0.359375 8.79899999999999949 8.79899999999999949 1
0.375 0.359375 9.09600000000000009 9.09600000000000009 1
0.3828125 0.359375 8.9009999999999998 8.9009999999999998 1
0.390625 0.359375 8.47199999999999953 8.47199999999999953 1
0.3984375 0.359375 8.94299999999999962 8.94299999999999962 1
0.40625 0.359375 9.03800000000000026 9.03800000000000026 1
0.4140625 0.359375 9.07099999999999973 9.07099999999999973 1
0.421875 0.359375 9.14300000000000068 9.14300000000000068 1
0.4296875 0.359375 8.74600000000000044 8.74600000000000044 1
0.4375 0.359375 8.86700000000000088 8.86700000000000088 1
0.4453125 0.359375 9.03999999999999915 9.03999999999999915 1
0.453125 0.359375 8.90700000000000003 8.90700000000000003 1
0.4609375 0.359375 8.74600000000000044 8.74600000000000044 1
0.46875 0.359375 8.98399999999999999 8.98399999999999999 1
0.4765625 0.359375 8.86700000000000088 8.86700000000000088 1
0.484375 0.359375 8.90700000000000003 8.90700000000000003 1
0.4921875 0.359375 8.73799999999999955 8.73799999999999955 1
0.5 0.359375 8.46899999999999942 8.46899999999999942 1
0.5078125 0.359375 8.94200000000000017 8.94200000000000017 1
0.515625 0.359375 8.95400000000000063 8.95400000000000063 1
0.5234375 0.359375 8.86700000000000088 8.86700000000000088 1
0.53125 0.359375 8.98499999999999943 8.98499999999999943 1
0.5390625 0.359375 8.86700000000000088 8.86700000000000088 1
0.546875 0.359375 9.0340000000000007 9.0340000000000007 1
0.5546875 0.359375 8.5779999999999994 8.5779999999999994 1
0.5625 0.359375 9.10599999999999987 9.10599999999999987 1
0.5703125 0.359375 9.20800000000000018 9.20800000000000018 1
0.578125 0.359375 9.26999999999999957 9.26999999999999957 1
0.5859375 0.359375 8.94299999999999962 8.94299999999999962 1
0.59375 0.359375 8.62299999999999933 8.62299999999999933 1
0.6015625 0.359375 9.12400000000000055 9.12400000000000055 1
0.609375 0.359375 8.85899999999999999 8.85899999999999999 1
0.6171875 0.359375 8.87899999999999956 8.87899999999999956 1
0.625 0.359375 8.86700000000000088 8.86700000000000088 1
0.6328125 0.359375 8.69999999999999929 8.69999999999999929 1
0.640625 0.359375 9.15300000000000047 9.15300000000000047 1
0.6484375 0.359375 8.6509999999999998 8.6509999999999998 1
0.65625 0.359375 8.74600000000000044 8.74600000000000044 1
0.6640625 0.359375 8.77500000000000036 8.77500000000000036 1
0.671875 0.359375 9.04199999999999982 9.04199999999999982 1
0.6796875 0.359375 8.94299999999999962 8.94299999999999962 1
0.6875 0.359375 9.0860000000000003 9.0860000000000003 1
0.6953125 0.359375 8.74600000000000044 8.74600000000000044 1
0.703125 0.359375 8.74600000000000044 8.74600000000000044 1
0.7109375 0.359375 9.07199999999999918 9.07199999999999918 1
0.71875 0.359375 8.80599999999999916 8.80599999999999916 1
0.7265625 0.359375 9.0600000000000005 9.0600000000000005 1
0.734375 0.359375 8.80599999999999916 8.80599999999999916 1
0.7421875 0.359375 8.75600000000000023 8.75600000000000023 1
0.75 0.359375 8.94299999999999962 8.94299999999999962 1
0.7578125 0.359375 8.86700000000000088 8.86700000000000088 1
0.765625 0.359375 8.86700000000000088 8.86700000000000088 1
0.7734375 0.359375 8.86700000000000088 8.86700000000000088 1
0.78125 0.359375 8.74600000000000044 8.74600000000000044 1
0.7890625 0.359375 8.86899999999999977 8.86899999999999977 1
0.796875 0.359375 9.09600000000000009 9.09600000000000009 1
0.8046875 0.359375 9.0340000000000007 9.0340000000000007 1
0.8125 0.359375 9.09600000000000009 9.09600000000000009 1
0.8203125 0.359375 8.94299999999999962 8.94299999999999962 1
0.828125 0.359375 8.77500000000000036 8.77500000000000036 1
0.8359375 0.359375 9.10500000000000043 9.10500000000000043 1
0.84375 0.359375 8.98099999999999987 8.98099999999999987 1
0.8515625 0.359375 8.78299999999999947 8.78299999999999947 1
0.859375 0.359375 8.75399999999999956 8.75399999999999956 1
0.8671875 0.359375 8.54199999999999982 8.54199999999999982 1
0.875 0.359375 8.94299999999999962 8.94299999999999962 1
0.8828125 0.359375 8.74600000000000044 8.74600000000000044 1
0.890625 0.359375 8.80599999999999916 8.80599999999999916 1
0.8984375 0.359375 8.74699999999999989 8.74699999999999989 1
0.90625 0.359375 9.20500000000000007 9.20500000000000007 1
0.9140625 0.359375 9.12599999999999945 9.12599999999999945 1
0.921875 0.359375 9.0600000000000005 9.0600000000000005 1
0.9296875 0.359375 9.24000000000000021 9.24000000000000021 1
0.9375 0.359375 8.94299999999999962 8.94299999999999962 1
0.9453125 0.359375 9.09999999999999964 9.09999999999999964 1
0.953125 0.359375 9.09600000000000009 9.09600000000000009 1
0.9609375 0.359375 8.79199999999999982 8.79199999999999982 1
0.96875 0.359375 8.94299999999999962 8.94299999999999962 1
0.9765625 0.359375 8.78500000000000014 8.78500000000000014 1
0.984375 0.359375 8.87199999999999989 8.87199999999999989 1
0.9921875 0.359375 8.52699999999999925 8.52699999999999925 1
0 0.3671875 8.7970000000000006 8.7970000000000006 1
0.0078125 0.3671875 8.74600000000000044 8.74600000000000044 1
0.015625 0.3671875 8.94299999999999962 8.94299999999999962 1
0.0234375 0.3671875 8.99799999999999933 8.99799999999999933 1
0.03125 0.3671875 8.74600000000000044 8.74600000000000044 1
0.0390625 0.3671875 8.74600000000000044 8.74600000000000044 1
0.046875 0.3671875 8.95899999999999963 8.95899999999999963 1
0.0546875 0.3671875 8.77500000000000036 8.77500000000000036 1
0.0625 0.3671875 8.6509999999999998 8.6509999999999998 1
0.0703125 0.3671875 9.01800000000000068 9.01800000000000068 1
0.078125 0.3671875 8.98099999999999987 8.98099999999999987 1
0.0859375 0.3671875 8.9659999999999993 8.9659999999999993 1
0.09375 0.3671875 8.83699999999999974 8.83699999999999974 1
0.1015625 0.3671875 8.77699999999999925 8.77699999999999925 1
0.109375 0.3671875 8.90700000000000003 8.90700000000000003 1
0.1171875 0.3671875 9.02999999999999936 9.02999999999999936 1
0.125 0.3671875 8.81900000000000084 8.81900000000000084 1
0.1328125 0.3671875 9.06799999999999962 9.06799999999999962 1
0.140625 0.3671875 9.09600000000000009 9.09600000000000009 1
0.1484375 0.3671875 8.74600000000000044 8.74600000000000044 1
0.15625 0.3671875 8.99399999999999977 8.99399999999999977 1
0.1640625 0.3671875 8.74600000000000044 8.74600000000000044 1
0.171875 0.3671875 8.89700000000000024 8.89700000000000024 1
0.1796875 0.3671875 8.91499999999999915 8.91499999999999915 1
0.1875 0.3671875 8.74600000000000044 8.74600000000000044 1
0.1953125 0.3671875 8.86700000000000088 8.86700000000000088 1
0.203125 0.3671875 8.82600000000000051 8.82600000000000051 1
0.2109375 0.3671875 8.74600000000000044 8.74600000000000044 1
0.21875 0.3671875 8.69200000000000017 8.69200000000000017 1
0.2265625 0.3671875 8.67300000000000004 8.67300000000000004 1
0.234375 0.3671875 8.74600000000000044 8.74600000000000044 1
0.2421875 0.3671875 9.09600000000000009 9.09600000000000009 1
0.25 0.3671875 8.86700000000000088 8.86700000000000088 1
0.2578125 0.3671875 9.00399999999999956 9.00399999999999956 1
0.265625 0.3671875 9.09600000000000009 9.09600000000000009 1
0.2734375 0.3671875 8.5860000000000003 8.5860000000000003 1
0.28125 0.3671875 9.09600000000000009 9.09600000000000009 1
0.2890625 0.3671875 9.09600000000000009 9.09600000000000009 1
0.296875 0.3671875 8.86700000000000088 8.86700000000000088 1
0.3046875 0.3671875 8.74600000000000044 8.74600000000000044 1
0.3125 0.3671875 8.82399999999999984 8.82399999999999984 1
0.3203125 0.3671875 8.93900000000000006 8.93900000000000006 1
0.328125 0.3671875 8.98099999999999987 8.98099999999999987 1
0.3359375 0.3671875 8.79400000000000048 8.79400000000000048 1
0.34375 0.3671875 8.54199999999999982 8.54199999999999982 1
0.3515625 0.3671875 8.74600000000000044 8.74600000000000044 1
0.359375 0.3671875 8.9009999999999998 8.9009999999999998 1
0.3671875 0.3671875 8.74600000000000044 8.74600000000000044 1
0.375 0.3671875 8.96499999999999986 8.96499999999999986 1
0.3828125 0.3671875 9.24000000000000021 9.24000000000000021 1
0.390625 0.3671875 8.5519999999999996 8.5519999999999996 1
0.3984375 0.3671875 9.09600000000000009 9.09600000000000009 1
0.40625 0.3671875 8.81199999999999939 8.81199999999999939 1
0.4140625 0.3671875 8.94299999999999962 8.94299999999999962 1
0.421875 0.3671875 8.93800000000000061 8.93800000000000061 1
0.4296875 0.3671875 9.02299999999999969 9.02299999999999969 1
0.4375 0.3671875 8.88700000000000045 8.88700000000000045 1
0.4453125 0.3671875 8.9139999999999997 8.9139999999999997 1
0.453125 0.3671875 8.5519999999999996 8.5519999999999996 1
0.4609375 0.3671875 8.5519999999999996 8.5519999999999996 1
0.46875 0.3671875 8.99799999999999933 8.99799999999999933 1
0.4765625 0.3671875 9.10599999999999987 9.10599999999999987 1
0.484375 0.3671875 8.8279999999999994 8.8279999999999994 1
0.4921875 0.3671875 8.74600000000000044 8.74600000000000044 1
0.5 0.3671875 8.97600000000000087 8.97600000000000087 1
0.5078125 0.3671875 8.74600000000000044 8.74600000000000044 1
0.515625 0.3671875 8.87400000000000055 8.87400000000000055 1
0.5234375 0.3671875 8.86700000000000088 8.86700000000000088 1
0.53125 0.3671875 8.91499999999999915 8.91499999999999915 1
0.5390625 0.3671875 8.96499999999999986 8.96499999999999986 1
0.546875 0.3671875 8.74600000000000044 8.74600000000000044 1
0.5546875 0.3671875 9.0340000000000007 9.0340000000000007 1
0.5625 0.3671875 9.20400000000000063 9.20400000000000063 1
0.5703125 0.3671875 8.87299999999999933 8.87299999999999933 1
0.578125 0.3671875 8.61500000000000021 8.61500000000000021 1
0.5859375 0.3671875 8.89799999999999969 8.89799999999999969 1
0.59375 0.3671875 8.9139999999999997 8.9139999999999997 1
0.6015625 0.3671875 8.9009999999999998 8.9009999999999998 1
0.609375 0.3671875 9.06700000000000017 9.06700000000000017 1
0.6171875 0.3671875 8.98099999999999987 8.98099999999999987 1
0.625 0.3671875 8.94699999999999918 8.94699999999999918 1
0.6328125 0.3671875 8.80599999999999916 8.80599999999999916 1
0.640625 0.3671875 8.94299999999999962 8.94299999999999962 1
0.6484375 0.3671875 8.99799999999999933 8.99799999999999933 1
0.65625 0.3671875 8.58000000000000007 8.58000000000000007 1
0.6640625 0.3671875 8.93200000000000038 8.93200000000000038 1
0.671875 0.3671875 9.31300000000000061 9.31300000000000061 1
0.6796875 0.3671875 8.98099999999999987 8.98099999999999987 1
0.6875 0.3671875 9.30300000000000082 9.30300000000000082 1
0.6953125 0.3671875 8.74600000000000044 8.74600000000000044 1
0.703125 0.3671875 9.04800000000000004 9.04800000000000004 1
0.7109375 0.3671875 8.92900000000000027 8.92900000000000027 1
0.71875 0.3671875 9.0860000000000003 9.0860000000000003 1
0.7265625 0.3671875 9.03800000000000026 9.03800000000000026 1
0.734375 0.3671875 9.0860000000000003 9.0860000000000003 1
0.7421875 0.3671875 8.82900000000000063 8.82900000000000063 1
0.75 0.3671875 8.74600000000000044 8.74600000000000044 1
0.7578125 0.3671875 8.96400000000000041 8.96400000000000041 1
0.765625 0.3671875 8.97199999999999953 8.97199999999999953 1
0.7734375 0.3671875 8.86700000000000088 8.86700000000000088 1
0.78125 0.3671875 9.00200000000000067 9.00200000000000067 1
0.7890625 0.3671875 8.78599999999999959 8.78599999999999959 1
0.796875 0.3671875 8.66499999999999915 8.66499999999999915 1
0.8046875 0.3671875 8.5519999999999996 8.5519999999999996 1
0.8125 0.3671875 8.6509999999999998 8.6509999999999998 1
0.8203125 0.3671875 8.74600000000000044 8.74600000000000044 1
0.828125 0.3671875 8.67900000000000027 8.67900000000000027 1
0.8359375 0.3671875 8.79400000000000048 8.79400000000000048 1
0.84375 0.3671875 8.74600000000000044 8.74600000000000044 1
0.8515625 0.3671875 8.94299999999999962 8.94299999999999962 1
0.859375 0.3671875 8.74600000000000044 8.74600000000000044 1
0.8671875 0.3671875 9.28200000000000003 9.28200000000000003 1
0.875 0.3671875 8.7889999999999997 8.7889999999999997 1
0.8828125 0.3671875 8.92399999999999949 8.92399999999999949 1
0.890625 0.3671875 8.98600000000000065 8.98600000000000065 1
0.8984375 0.3671875 8.74600000000000044 8.74600000000000044 1
0.90625 0.3671875 8.65499999999999936 8.65499999999999936 1
0.9140625 0.3671875 9.11999999999999922 9.11999999999999922 1
0.921875 0.3671875 9.2110000000000003 9.2110000000000003 1
0.9296875 0.3671875 8.88700000000000045 8.88700000000000045 1
0.9375 0.3671875 8.84999999999999964 8.84999999999999964 1
0.9453125 0.3671875 8.78500000000000014 8.78500000000000014 1
0.953125 0.3671875 8.97600000000000087 8.97600000000000087 1
0.9609375 0.3671875 8.99799999999999933 8.99799999999999933 1
0.96875 0.3671875 8.78500000000000014 8.78500000000000014 1
0.9765625 0.3671875 8.86700000000000088 8.86700000000000088 1
0.984375 0.3671875 8.82399999999999984 8.82399999999999984 1
0.9921875 0.3671875 8.74600000000000044 8.74600000000000044 1
0 0.375 8.99799999999999933 8.99799999999999933 1
0.0078125 0.375 8.8149999999999995 8.8149999999999995 1
0.015625 0.375 8.94299999999999962 8.94299999999999962 1
0.0234375 0.375 8.80599999999999916 8.80599999999999916 1
0.03125 0.375 8.94299999999999962 8.94299999999999962 1
0.0390625 0.375 9.09600000000000009 9.09600000000000009 1
0.046875 0.375 8.8620000000000001 8.8620000000000001 1
0.0546875 0.375 8.74600000000000044 8.74600000000000044 1
0.0625 0.375 8.71899999999999942 8.71899999999999942 1
0.0703125 0.375 8.74600000000000044 8.74600000000000044 1
0.078125 0.375 8.74600000000000044 8.74600000000000044 1
0.0859375 0.375 8.94599999999999973 8.94599999999999973 1
0.09375 0.375 9 9 1
0.1015625 0.375 9.06099999999999994 9.06099999999999994 1
0.109375 0.375 8.82000000000000028 8.82000000000000028 1
0.1171875 0.375 9.24000000000000021 9.24000000000000021 1
0.125 0.375 8.74600000000000044 8.74600000000000044 1
0.1328125 0.375 8.89100000000000001 8.89100000000000001 1
0.140625 0.375 9.01600000000000001 9.01600000000000001 1
0.1484375 0.375 8.98000000000000043 8.98000000000000043 1
0.15625 0.375 8.94299999999999962 8.94299999999999962 1
0.1640625 0.375 8.85299999999999976 8.85299999999999976 1
0.171875 0.375 8.94299999999999962 8.94299999999999962 1
0.1796875 0.375 8.78500000000000014 8.78500000000000014 1
0.1875 0.375 8.33399999999999963 8.33399999999999963 1
0.1953125 0.375 9.09800000000000075 9.09800000000000075 1
0.203125 0.375 8.65499999999999936 8.65499999999999936 1
0.2109375 0.375 9.0259999999999998 9.0259999999999998 1
0.21875 0.375 8.80599999999999916 8.80599999999999916 1
0.2265625 0.375 8.74600000000000044 8.74600000000000044 1
0.234375 0.375 8.94299999999999962 8.94299999999999962 1
0.2421875 0.375 8.88100000000000023 8.88100000000000023 1
0.25 0.375 9.09600000000000009 9.09600000000000009 1
0.2578125 0.375 8.74600000000000044 8.74600000000000044 1
0.265625 0.375 9.09600000000000009 9.09600000000000009 1
0.2734375 0.375 8.94299999999999962 8.94299999999999962 1
0.28125 0.375 9.03299999999999947 9.03299999999999947 1
0.2890625 0.375 8.74600000000000044 8.74600000000000044 1
0.296875 0.375 8.94299999999999962 8.94299999999999962 1
0.3046875 0.375 8.89499999999999957 8.89499999999999957 1
0.3125 0.375 8.74600000000000044 8.74600000000000044 1
0.3203125 0.375 8.83300000000000018 8.83300000000000018 1
0.328125 0.375 8.7240000000000002 8.7240000000000002 1
0.3359375 0.375 9.02999999999999936 9.02999999999999936 1
0.34375 0.375 8.98600000000000065 8.98600000000000065 1
0.3515625 0.375 8.68200000000000038 8.68200000000000038 1
0.359375 0.375 8.94299999999999962 8.94299999999999962 1
0.3671875 0.375 8.74600000000000044 8.74600000000000044 1
0.375 0.375 8.98099999999999987 8.98099999999999987 1
0.3828125 0.375 8.89499999999999957 8.89499999999999957 1
0.390625 0.375 8.99799999999999933 8.99799999999999933 1
0.3984375 0.375 8.73900000000000077 8.73900000000000077 1
0.40625 0.375 8.69999999999999929 8.69999999999999929 1
0.4140625 0.375 9.09600000000000009 9.09600000000000009 1
0.421875 0.375 8.63199999999999967 8.63199999999999967 1
0.4296875 0.375 9.01099999999999923 9.01099999999999923 1
0.4375 0.375 8.76699999999999946 8.76699999999999946 1
0.4453125 0.375 8.75099999999999945 8.75099999999999945 1
0.453125 0.375 9.07499999999999929 9.07499999999999929 1
0.4609375 0.375 8.99600000000000044 8.99600000000000044 1
0.46875 0.375 8.73099999999999987 8.73099999999999987 1
0.4765625 0.375 9.09600000000000009 9.09600000000000009 1
0.484375 0.375 8.93399999999999928 8.93399999999999928 1
0.4921875 0.375 8.83999999999999986 8.83999999999999986 1
0.5 0.375 8.80499999999999972 8.80499999999999972 1
0.5078125 0.375 8.86700000000000088 8.86700000000000088 1
0.515625 0.375 8.98099999999999987 8.98099999999999987 1
0.5234375 0.375 8.91999999999999993 8.91999999999999993 1
0.53125 0.375 8.9009999999999998 8.9009999999999998 1
0.5390625 0.375 8.86700000000000088 8.86700000000000088 1
0.546875 0.375 8.80300000000000082 8.80300000000000082 1
0.5546875 0.375 8.80599999999999916 8.80599999999999916 1
0.5625 0.375 8.69100000000000072 8.69100000000000072 1
0.5703125 0.375 8.77399999999999913 8.77399999999999913 1
0.578125 0.375 8.97600000000000087 8.97600000000000087 1
0.5859375 0.375 9.0210000000000008 9.0210000000000008 1
0.59375 0.375 8.94299999999999962 8.94299999999999962 1
0.6015625 0.375 8.94299999999999962 8.94299999999999962 1
0.609375 0.375 8.91699999999999982 8.91699999999999982 1
0.6171875 0.375 9.24000000000000021 9.24000000000000021 1
0.625 0.375 8.84600000000000009 8.84600000000000009 1
0.6328125 0.375 8.96299999999999919 8.96299999999999919 1
0.640625 0.375 8.85699999999999932 8.85699999999999932 1
0.6484375 0.375 8.99799999999999933 8.99799999999999933 1
0.65625 0.375 9.09600000000000009 9.09600000000000009 1
0.6640625 0.375 9.01900000000000013 9.01900000000000013 1
0.671875 0.375 8.98300000000000054 8.98300000000000054 1
0.6796875 0.375 9 9 1
0.6875 0.375 8.82199999999999918 8.82199999999999918 1
0.6953125 0.375 8.82900000000000063 8.82900000000000063 1
0.703125 0.375 8.8279999999999994 8.8279999999999994 1
0.7109375 0.375 9.05300000000000082 9.05300000000000082 1
0.71875 0.375 8.94299999999999962 8.94299999999999962 1
0.7265625 0.375 8.98099999999999987 8.98099999999999987 1
