ply
format ascii 1.0
element vertex 845
property double x
property double y
property double z
property double depth
property double albedo
end_header
0.8359375 0.5078125 4.97900000000000009 4.97900000000000009 1
0.84375 0.5078125 5.16500000000000004 5.16500000000000004 1
0.8515625 0.5078125 5 5 1
0.859375 0.5078125 4.95300000000000029 4.95300000000000029 1
0.8671875 0.5078125 4.84999999999999964 4.84999999999999964 1
0.875 0.5078125 4.88199999999999967 4.88199999999999967 1
0.8828125 0.5078125 5.22599999999999998 5.22599999999999998 1
0.890625 0.5078125 4.84999999999999964 4.84999999999999964 1
0.8984375 0.5078125 5 5 1
0.90625 0.5078125 4.56700000000000017 4.56700000000000017 1
0.9140625 0.5078125 4.65200000000000014 4.65200000000000014 1
0.921875 0.5078125 4.73800000000000043 4.73800000000000043 1
0.9296875 0.5078125 4.93700000000000028 4.93700000000000028 1
0.9375 0.5078125 5.04000000000000004 5.04000000000000004 1
0.9453125 0.5078125 4.73800000000000043 4.73800000000000043 1
0.953125 0.5078125 4.41600000000000037 4.41600000000000037 1
0.9609375 0.5078125 4.56700000000000017 4.56700000000000017 1
0.96875 0.5078125 5 5 1
0.9765625 0.5078125 5.00499999999999989 5.00499999999999989 1
0.984375 0.5078125 5.13100000000000023 5.13100000000000023 1
0.9921875 0.5078125 5.1120000000000001 5.1120000000000001 1
0 0.515625 4.90599999999999969 4.90599999999999969 1
0.0078125 0.515625 4.92999999999999972 4.92999999999999972 1
0.015625 0.515625 4.65200000000000014 4.65200000000000014 1
0.0234375 0.515625 4.88900000000000023 4.88900000000000023 1
0.03125 0.515625 4.88900000000000023 4.88900000000000023 1
0.0390625 0.515625 5 5 1
0.046875 0.515625 4.73800000000000043 4.73800000000000043 1
0.0546875 0.515625 4.84999999999999964 4.84999999999999964 1
0.0625 0.515625 4.70500000000000007 4.70500000000000007 1
0.0703125 0.515625 5.04000000000000004 5.04000000000000004 1
0.078125 0.515625 5.04000000000000004 5.04000000000000004 1
0.0859375 0.515625 5 5 1
0.09375 0.515625 5.25 5.25 1
0.1015625 0.515625 4.73800000000000043 4.73800000000000043 1
0.109375 0.515625 4.95300000000000029 4.95300000000000029 1
0.1171875 0.515625 4.73800000000000043 4.73800000000000043 1
0.125 0.515625 5.06400000000000006 5.06400000000000006 1
0.1328125 0.515625 4.56700000000000017 4.56700000000000017 1
0.140625 0.515625 5.04399999999999959 5.04399999999999959 1
0.1484375 0.515625 4.95300000000000029 4.95300000000000029 1
0.15625 0.515625 4.84999999999999964 4.84999999999999964 1
0.1640625 0.515625 5.0990000000000002 5.0990000000000002 1
0.171875 0.515625 4.45000000000000018 4.45000000000000018 1
0.1796875 0.515625 4.65200000000000014 4.65200000000000014 1
0.1875 0.515625 4.99199999999999999 4.99199999999999999 1
0.1953125 0.515625 5.04000000000000004 5.04000000000000004 1
0.203125 0.515625 4.88900000000000023 4.88900000000000023 1
0.2109375 0.515625 5.30100000000000016 5.30100000000000016 1
0.21875 0.515625 4.84999999999999964 4.84999999999999964 1
0.2265625 0.515625 4.73800000000000043 4.73800000000000043 1
0.234375 0.515625 4.88900000000000023 4.88900000000000023 1
0.2421875 0.515625 4.75300000000000011 4.75300000000000011 1
0.25 0.515625 4.84999999999999964 4.84999999999999964 1
0.2578125 0.515625 4.56700000000000017 4.56700000000000017 1
0.265625 0.515625 5 5 1
0.2734375 0.515625 5.04000000000000004 5.04000000000000004 1
0.28125 0.515625 4.73800000000000043 4.73800000000000043 1
0.2890625 0.515625 5 5 1
0.296875 0.515625 5 5 1
0.3046875 0.515625 5 5 1
0.3125 0.515625 4.73800000000000043 4.73800000000000043 1
0.3203125 0.515625 4.84999999999999964 4.84999999999999964 1
0.328125 0.515625 4.84999999999999964 4.84999999999999964 1
0.3359375 0.515625 5.06500000000000039 5.06500000000000039 1
0.34375 0.515625 5 5 1
0.3515625 0.515625 4.92400000000000038 4.92400000000000038 1
0.359375 0.515625 5.08699999999999974 5.08699999999999974 1
0.3671875 0.515625 5.01400000000000023 5.01400000000000023 1
0.375 0.515625 4.84999999999999964 4.84999999999999964 1
0.3828125 0.515625 4.68499999999999961 4.68499999999999961 1
0.390625 0.515625 5.13300000000000001 5.13300000000000001 1
0.3984375 0.515625 5.22599999999999998 5.22599999999999998 1
0.40625 0.515625 5 5 1
0.4140625 0.515625 4.84999999999999964 4.84999999999999964 1
0.421875 0.515625 5 5 1
0.4296875 0.515625 4.85099999999999998 4.85099999999999998 1
0.4375 0.515625 5.10200000000000031 5.10200000000000031 1
0.4453125 0.515625 4.65200000000000014 4.65200000000000014 1
0.453125 0.515625 4.84999999999999964 4.84999999999999964 1
0.4609375 0.515625 5 5 1
0.46875 0.515625 4.97799999999999976 4.97799999999999976 1
0.4765625 0.515625 5.23599999999999977 5.23599999999999977 1
0.484375 0.515625 4.70600000000000041 4.70600000000000041 1
0.4921875 0.515625 5.04000000000000004 5.04000000000000004 1
0.5 0.515625 4.98500000000000032 4.98500000000000032 1
0.5078125 0.515625 4.73800000000000043 4.73800000000000043 1
0.515625 0.515625 4.84999999999999964 4.84999999999999964 1
0.5234375 0.515625 5.12100000000000044 5.12100000000000044 1
0.53125 0.515625 5 5 1
0.5390625 0.515625 4.84999999999999964 4.84999999999999964 1
0.546875 0.515625 4.65200000000000014 4.65200000000000014 1
0.5546875 0.515625 5.14700000000000024 5.14700000000000024 1
0.5625 0.515625 4.8490000000000002 4.8490000000000002 1
0.5703125 0.515625 5 5 1
0.578125 0.515625 5.04000000000000004 5.04000000000000004 1
0.5859375 0.515625 4.84999999999999964 4.84999999999999964 1
0.59375 0.515625 4.68499999999999961 4.68499999999999961 1
0.6015625 0.515625 4.65200000000000014 4.65200000000000014 1
0.609375 0.515625 4.65200000000000014 4.65200000000000014 1
0.6171875 0.515625 5 5 1
0.625 0.515625 5.02400000000000002 5.02400000000000002 1
0.6328125 0.515625 4.65200000000000014 4.65200000000000014 1
0.640625 0.515625 4.88199999999999967 4.88199999999999967 1
0.6484375 0.515625 5.04000000000000004 5.04000000000000004 1
0.65625 0.515625 4.65200000000000014 4.65200000000000014 1
0.6640625 0.515625 4.83699999999999974 4.83699999999999974 1
0.671875 0.515625 5.16800000000000015 5.16800000000000015 1
0.6796875 0.515625 4.84999999999999964 4.84999999999999964 1
0.6875 0.515625 5.04000000000000004 5.04000000000000004 1
0.6953125 0.515625 4.84999999999999964 4.84999999999999964 1
0.703125 0.515625 4.90399999999999991 4.90399999999999991 1
0.7109375 0.515625 4.84999999999999964 4.84999999999999964 1
0.71875 0.515625 4.79300000000000015 4.79300000000000015 1
0.7265625 0.515625 4.90599999999999969 4.90599999999999969 1
0.734375 0.515625 4.95300000000000029 4.95300000000000029 1
0.7421875 0.515625 5 5 1
0.75 0.515625 4.75300000000000011 4.75300000000000011 1
0.7578125 0.515625 4.84999999999999964 4.84999999999999964 1
0.765625 0.515625 4.73800000000000043 4.73800000000000043 1
0.7734375 0.515625 4.65200000000000014 4.65200000000000014 1
0.78125 0.515625 4.73800000000000043 4.73800000000000043 1
0.7890625 0.515625 4.90599999999999969 4.90599999999999969 1
0.796875 0.515625 4.84999999999999964 4.84999999999999964 1
0.8046875 0.515625 4.88900000000000023 4.88900000000000023 1
0.8125 0.515625 4.73800000000000043 4.73800000000000043 1
0.8203125 0.515625 4.84999999999999964 4.84999999999999964 1
0.828125 0.515625 4.88900000000000023 4.88900000000000023 1
0.8359375 0.515625 4.51100000000000012 4.51100000000000012 1
0.84375 0.515625 4.84999999999999964 4.84999999999999964 1
0.8515625 0.515625 5.05400000000000027 5.05400000000000027 1
0.859375 0.515625 4.65200000000000014 4.65200000000000014 1
0.8671875 0.515625 4.84999999999999964 4.84999999999999964 1
0.875 0.515625 4.73800000000000043 4.73800000000000043 1
0.8828125 0.515625 5.14599999999999991 5.14599999999999991 1
0.890625 0.515625 5.05299999999999994 5.05299999999999994 1
0.8984375 0.515625 4.91699999999999982 4.91699999999999982 1
0.90625 0.515625 5.18100000000000005 5.18100000000000005 1
0.9140625 0.515625 5.04000000000000004 5.04000000000000004 1
0.921875 0.515625 4.84999999999999964 4.84999999999999964 1
0.9296875 0.515625 4.68499999999999961 4.68499999999999961 1
0.9375 0.515625 4.84999999999999964 4.84999999999999964 1
0.9453125 0.515625 5.04000000000000004 5.04000000000000004 1
0.953125 0.515625 4.65200000000000014 4.65200000000000014 1
0.9609375 0.515625 4.91800000000000015 4.91800000000000015 1
0.96875 0.515625 5.04000000000000004 5.04000000000000004 1
0.9765625 0.515625 4.88900000000000023 4.88900000000000023 1
0.984375 0.515625 4.65200000000000014 4.65200000000000014 1
0.9921875 0.515625 4.84999999999999964 4.84999999999999964 1
0 0.5234375 5 5 1
0.0078125 0.5234375 4.79199999999999982 4.79199999999999982 1
0.015625 0.5234375 4.51100000000000012 4.51100000000000012 1
0.0234375 0.5234375 4.84999999999999964 4.84999999999999964 1
0.03125 0.5234375 5.22599999999999998 5.22599999999999998 1
0.0390625 0.5234375 4.84999999999999964 4.84999999999999964 1
0.046875 0.5234375 5.08699999999999974 5.08699999999999974 1
0.0546875 0.5234375 5.06099999999999994 5.06099999999999994 1
0.0625 0.5234375 5.06400000000000006 5.06400000000000006 1
0.0703125 0.5234375 5.19500000000000028 5.19500000000000028 1
0.078125 0.5234375 4.88199999999999967 4.88199999999999967 1
0.0859375 0.5234375 5.06400000000000006 5.06400000000000006 1
0.09375 0.5234375 5.14700000000000024 5.14700000000000024 1
0.1015625 0.5234375 5.14700000000000024 5.14700000000000024 1
0.109375 0.5234375 4.65200000000000014 4.65200000000000014 1
0.1171875 0.5234375 5 5 1
0.125 0.5234375 5 5 1
0.1328125 0.5234375 4.92900000000000027 4.92900000000000027 1
0.140625 0.5234375 5.14700000000000024 5.14700000000000024 1
0.1484375 0.5234375 5.14700000000000024 5.14700000000000024 1
0.15625 0.5234375 4.65200000000000014 4.65200000000000014 1
0.1640625 0.5234375 5 5 1
0.171875 0.5234375 4.84999999999999964 4.84999999999999964 1
0.1796875 0.5234375 4.70500000000000007 4.70500000000000007 1
0.1875 0.5234375 5.14700000000000024 5.14700000000000024 1
0.1953125 0.5234375 4.68900000000000006 4.68900000000000006 1
0.203125 0.5234375 4.84999999999999964 4.84999999999999964 1
0.2109375 0.5234375 4.65200000000000014 4.65200000000000014 1
0.21875 0.5234375 5 5 1
0.2265625 0.5234375 5.10799999999999965 5.10799999999999965 1
0.234375 0.5234375 4.90599999999999969 4.90599999999999969 1
0.2421875 0.5234375 4.73800000000000043 4.73800000000000043 1
0.25 0.5234375 5.04000000000000004 5.04000000000000004 1
0.2578125 0.5234375 5.14700000000000024 5.14700000000000024 1
0.265625 0.5234375 4.84999999999999964 4.84999999999999964 1
0.2734375 0.5234375 4.54499999999999993 4.54499999999999993 1
0.28125 0.5234375 5.0259999999999998 5.0259999999999998 1
0.2890625 0.5234375 5.06400000000000006 5.06400000000000006 1
0.296875 0.5234375 4.88900000000000023 4.88900000000000023 1
0.3046875 0.5234375 4.83499999999999996 4.83499999999999996 1
0.3125 0.5234375 4.88900000000000023 4.88900000000000023 1
0.3203125 0.5234375 5.0259999999999998 5.0259999999999998 1
0.328125 0.5234375 4.70399999999999974 4.70399999999999974 1
0.3359375 0.5234375 5 5 1
0.34375 0.5234375 4.94899999999999984 4.94899999999999984 1
0.3515625 0.5234375 4.56700000000000017 4.56700000000000017 1
0.359375 0.5234375 5 5 1
0.3671875 0.5234375 5 5 1
0.375 0.5234375 4.56700000000000017 4.56700000000000017 1
0.3828125 0.5234375 4.84999999999999964 4.84999999999999964 1
0.390625 0.5234375 5.04000000000000004 5.04000000000000004 1
0.3984375 0.5234375 4.73800000000000043 4.73800000000000043 1
0.40625 0.5234375 5 5 1
0.4140625 0.5234375 4.45000000000000018 4.45000000000000018 1
0.421875 0.5234375 4.65200000000000014 4.65200000000000014 1
0.4296875 0.5234375 4.65200000000000014 4.65200000000000014 1
0.4375 0.5234375 4.85899999999999999 4.85899999999999999 1
0.4453125 0.5234375 5.04000000000000004 5.04000000000000004 1
0.453125 0.5234375 5.06500000000000039 5.06500000000000039 1
0.4609375 0.5234375 5.04000000000000004 5.04000000000000004 1
0.46875 0.5234375 4.56700000000000017 4.56700000000000017 1
0.4765625 0.5234375 4.56700000000000017 4.56700000000000017 1
0.484375 0.5234375 4.79199999999999982 4.79199999999999982 1
0.4921875 0.5234375 5.02700000000000014 5.02700000000000014 1
0.5 0.5234375 4.79199999999999982 4.79199999999999982 1
0.5078125 0.5234375 4.95300000000000029 4.95300000000000029 1
0.515625 0.5234375 4.41600000000000037 4.41600000000000037 1
0.5234375 0.5234375 4.84999999999999964 4.84999999999999964 1
0.53125 0.5234375 5 5 1
0.5390625 0.5234375 5.04000000000000004 5.04000000000000004 1
0.546875 0.5234375 5.29900000000000038 5.29900000000000038 1
0.5546875 0.5234375 4.84999999999999964 4.84999999999999964 1
0.5625 0.5234375 4.73800000000000043 4.73800000000000043 1
0.5703125 0.5234375 4.84999999999999964 4.84999999999999964 1
0.578125 0.5234375 4.65200000000000014 4.65200000000000014 1
0.5859375 0.5234375 5.07399999999999984 5.07399999999999984 1
0.59375 0.5234375 4.96300000000000008 4.96300000000000008 1
0.6015625 0.5234375 4.84999999999999964 4.84999999999999964 1
0.609375 0.5234375 4.88100000000000023 4.88100000000000023 1
0.6171875 0.5234375 4.84999999999999964 4.84999999999999964 1
0.625 0.5234375 5.04000000000000004 5.04000000000000004 1
0.6328125 0.5234375 5.22599999999999998 5.22599999999999998 1
0.640625 0.5234375 5.09100000000000019 5.09100000000000019 1
0.6484375 0.5234375 5.3230000000000004 5.3230000000000004 1
0.65625 0.5234375 4.84999999999999964 4.84999999999999964 1
0.6640625 0.5234375 4.88300000000000001 4.88300000000000001 1
0.671875 0.5234375 4.88900000000000023 4.88900000000000023 1
0.6796875 0.5234375 4.93799999999999972 4.93799999999999972 1
0.6875 0.5234375 4.41600000000000037 4.41600000000000037 1
0.6953125 0.5234375 4.88900000000000023 4.88900000000000023 1
0.703125 0.5234375 4.90599999999999969 4.90599999999999969 1
0.7109375 0.5234375 4.84999999999999964 4.84999999999999964 1
0.71875 0.5234375 4.84999999999999964 4.84999999999999964 1
0.7265625 0.5234375 4.97900000000000009 4.97900000000000009 1
0.734375 0.5234375 5.05400000000000027 5.05400000000000027 1
0.7421875 0.5234375 4.73099999999999987 4.73099999999999987 1
0.75 0.5234375 4.88199999999999967 4.88199999999999967 1
0.7578125 0.5234375 4.73800000000000043 4.73800000000000043 1
0.765625 0.5234375 5.15899999999999981 5.15899999999999981 1
0.7734375 0.5234375 5.04000000000000004 5.04000000000000004 1
0.78125 0.5234375 5.04000000000000004 5.04000000000000004 1
0.7890625 0.5234375 5.04000000000000004 5.04000000000000004 1
0.796875 0.5234375 4.45000000000000018 4.45000000000000018 1
0.8046875 0.5234375 4.84999999999999964 4.84999999999999964 1
0.8125 0.5234375 4.68499999999999961 4.68499999999999961 1
0.8203125 0.5234375 5 5 1
0.828125 0.5234375 4.94899999999999984 4.94899999999999984 1
0.8359375 0.5234375 5 5 1
0.84375 0.5234375 5.27299999999999969 5.27299999999999969 1
0.8515625 0.5234375 5.14700000000000024 5.14700000000000024 1
0.859375 0.5234375 5 5 1
0.8671875 0.5234375 5.22599999999999998 5.22599999999999998 1
0.875 0.5234375 5.04000000000000004 5.04000000000000004 1
0.8828125 0.5234375 4.88900000000000023 4.88900000000000023 1
0.890625 0.5234375 4.84999999999999964 4.84999999999999964 1
0.8984375 0.5234375 5.04000000000000004 5.04000000000000004 1
0.90625 0.5234375 4.99199999999999999 4.99199999999999999 1
0.9140625 0.5234375 4.96799999999999997 4.96799999999999997 1
0.921875 0.5234375 5 5 1
0.9296875 0.5234375 4.73800000000000043 4.73800000000000043 1
0.9375 0.5234375 4.95099999999999962 4.95099999999999962 1
0.9453125 0.5234375 4.73800000000000043 4.73800000000000043 1
0.953125 0.5234375 5 5 1
0.9609375 0.5234375 5.04000000000000004 5.04000000000000004 1
0.96875 0.5234375 4.84999999999999964 4.84999999999999964 1
0.9765625 0.5234375 4.93400000000000016 4.93400000000000016 1
0.984375 0.5234375 5 5 1
0.9921875 0.5234375 5.04000000000000004 5.04000000000000004 1
0 0.53125 5.04000000000000004 5.04000000000000004 1
0.0078125 0.53125 5.16199999999999992 5.16199999999999992 1
0.015625 0.53125 4.95300000000000029 4.95300000000000029 1
0.0234375 0.53125 5.04000000000000004 5.04000000000000004 1
0.03125 0.53125 4.79000000000000004 4.79000000000000004 1
0.0390625 0.53125 4.84999999999999964 4.84999999999999964 1
0.046875 0.53125 5 5 1
0.0546875 0.53125 4.56700000000000017 4.56700000000000017 1
0.0625 0.53125 5.27099999999999991 5.27099999999999991 1
0.0703125 0.53125 5 5 1
0.078125 0.53125 5 5 1
0.0859375 0.53125 4.84999999999999964 4.84999999999999964 1
0.09375 0.53125 4.90500000000000025 4.90500000000000025 1
0.1015625 0.53125 4.65200000000000014 4.65200000000000014 1
0.109375 0.53125 5.04000000000000004 5.04000000000000004 1
0.1171875 0.53125 5.04000000000000004 5.04000000000000004 1
0.125 0.53125 4.84999999999999964 4.84999999999999964 1
0.1328125 0.53125 4.65200000000000014 4.65200000000000014 1
0.140625 0.53125 4.84999999999999964 4.84999999999999964 1
0.1484375 0.53125 5.19399999999999995 5.19399999999999995 1
0.15625 0.53125 4.88100000000000023 4.88100000000000023 1
0.1640625 0.53125 5 5 1
0.171875 0.53125 5 5 1
0.1796875 0.53125 4.84999999999999964 4.84999999999999964 1
0.1875 0.53125 4.65200000000000014 4.65200000000000014 1
0.1953125 0.53125 4.95300000000000029 4.95300000000000029 1
0.203125 0.53125 5.04000000000000004 5.04000000000000004 1
0.2109375 0.53125 5.14599999999999991 5.14599999999999991 1
0.21875 0.53125 4.84999999999999964 4.84999999999999964 1
0.2265625 0.53125 5.14700000000000024 5.14700000000000024 1
0.234375 0.53125 4.79199999999999982 4.79199999999999982 1
0.2421875 0.53125 4.73299999999999965 4.73299999999999965 1
0.25 0.53125 5.15800000000000036 5.15800000000000036 1
0.2578125 0.53125 4.83499999999999996 4.83499999999999996 1
0.265625 0.53125 5.09400000000000031 5.09400000000000031 1
0.2734375 0.53125 4.68499999999999961 4.68499999999999961 1
0.28125 0.53125 4.65200000000000014 4.65200000000000014 1
0.2890625 0.53125 5.24500000000000011 5.24500000000000011 1
0.296875 0.53125 4.84999999999999964 4.84999999999999964 1
0.3046875 0.53125 5.04000000000000004 5.04000000000000004 1
0.3125 0.53125 5.14599999999999991 5.14599999999999991 1
0.3203125 0.53125 4.75300000000000011 4.75300000000000011 1
0.328125 0.53125 4.56700000000000017 4.56700000000000017 1
0.3359375 0.53125 5.14700000000000024 5.14700000000000024 1
0.34375 0.53125 4.94899999999999984 4.94899999999999984 1
0.3515625 0.53125 4.41600000000000037 4.41600000000000037 1
0.359375 0.53125 4.98899999999999988 4.98899999999999988 1
0.3671875 0.53125 4.84999999999999964 4.84999999999999964 1
0.375 0.53125 5.04000000000000004 5.04000000000000004 1
0.3828125 0.53125 5.04000000000000004 5.04000000000000004 1
0.390625 0.53125 4.84999999999999964 4.84999999999999964 1
0.3984375 0.53125 5.06400000000000006 5.06400000000000006 1
0.40625 0.53125 4.7629999999999999 4.7629999999999999 1
0.4140625 0.53125 5.06099999999999994 5.06099999999999994 1
0.421875 0.53125 4.88199999999999967 4.88199999999999967 1
0.4296875 0.53125 5.04000000000000004 5.04000000000000004 1
0.4375 0.53125 5 5 1
0.4453125 0.53125 4.84999999999999964 4.84999999999999964 1
0.453125 0.53125 5.04000000000000004 5.04000000000000004 1
0.4609375 0.53125 4.84999999999999964 4.84999999999999964 1
0.46875 0.53125 5 5 1
0.4765625 0.53125 4.84999999999999964 4.84999999999999964 1
0.484375 0.53125 5 5 1
0.4921875 0.53125 5.04000000000000004 5.04000000000000004 1
0.5 0.53125 4.90599999999999969 4.90599999999999969 1
0.5078125 0.53125 4.69500000000000028 4.69500000000000028 1
0.515625 0.53125 4.73800000000000043 4.73800000000000043 1
0.5234375 0.53125 4.84999999999999964 4.84999999999999964 1
0.53125 0.53125 4.73800000000000043 4.73800000000000043 1
0.5390625 0.53125 5.04000000000000004 5.04000000000000004 1
0.546875 0.53125 4.84999999999999964 4.84999999999999964 1
0.5546875 0.53125 5.19899999999999984 5.19899999999999984 1
0.5625 0.53125 4.95300000000000029 4.95300000000000029 1
0.5703125 0.53125 4.84999999999999964 4.84999999999999964 1
0.578125 0.53125 4.84999999999999964 4.84999999999999964 1
0.5859375 0.53125 4.75300000000000011 4.75300000000000011 1
0.59375 0.53125 5.0519999999999996 5.0519999999999996 1
0.6015625 0.53125 4.84999999999999964 4.84999999999999964 1
0.609375 0.53125 4.84999999999999964 4.84999999999999964 1
0.6171875 0.53125 5 5 1
0.625 0.53125 5 5 1
0.6328125 0.53125 4.88900000000000023 4.88900000000000023 1
0.640625 0.53125 5.04000000000000004 5.04000000000000004 1
0.6484375 0.53125 5 5 1
0.65625 0.53125 5.16300000000000026 5.16300000000000026 1
0.6640625 0.53125 5 5 1
0.671875 0.53125 4.56700000000000017 4.56700000000000017 1
0.6796875 0.53125 5.2889999999999997 5.2889999999999997 1
0.6875 0.53125 5.09600000000000009 5.09600000000000009 1
0.6953125 0.53125 5.05299999999999994 5.05299999999999994 1
0.703125 0.53125 4.88900000000000023 4.88900000000000023 1
0.7109375 0.53125 5.04000000000000004 5.04000000000000004 1
0.71875 0.53125 5.06400000000000006 5.06400000000000006 1
0.7265625 0.53125 4.56700000000000017 4.56700000000000017 1
0.734375 0.53125 4.84999999999999964 4.84999999999999964 1
0.7421875 0.53125 5.0860000000000003 5.0860000000000003 1
0.75 0.53125 4.75300000000000011 4.75300000000000011 1
0.7578125 0.53125 4.73800000000000043 4.73800000000000043 1
0.765625 0.53125 4.73800000000000043 4.73800000000000043 1
0.7734375 0.53125 4.73800000000000043 4.73800000000000043 1
0.78125 0.53125 5 5 1
0.7890625 0.53125 5.00100000000000033 5.00100000000000033 1
0.796875 0.53125 4.73800000000000043 4.73800000000000043 1
0.8046875 0.53125 4.98500000000000032 4.98500000000000032 1
0.8125 0.53125 4.84999999999999964 4.84999999999999964 1
0.8203125 0.53125 5.08300000000000018 5.08300000000000018 1
0.828125 0.53125 4.68499999999999961 4.68499999999999961 1
0.8359375 0.53125 4.68499999999999961 4.68499999999999961 1
0.84375 0.53125 5 5 1
0.8515625 0.53125 5.1980000000000004 5.1980000000000004 1
0.859375 0.53125 4.90599999999999969 4.90599999999999969 1
0.8671875 0.53125 4.88900000000000023 4.88900000000000023 1
0.875 0.53125 4.84999999999999964 4.84999999999999964 1
0.8828125 0.53125 5.04000000000000004 5.04000000000000004 1
0.890625 0.53125 4.65200000000000014 4.65200000000000014 1
0.8984375 0.53125 4.51100000000000012 4.51100000000000012 1
0.90625 0.53125 4.68499999999999961 4.68499999999999961 1
0.9140625 0.53125 5.14700000000000024 5.14700000000000024 1
0.921875 0.53125 4.93700000000000028 4.93700000000000028 1
0.9296875 0.53125 4.91699999999999982 4.91699999999999982 1
0.9375 0.53125 4.65200000000000014 4.65200000000000014 1
0.9453125 0.53125 5.04000000000000004 5.04000000000000004 1
0.953125 0.53125 5.04000000000000004 5.04000000000000004 1
0.9609375 0.53125 4.73800000000000043 4.73800000000000043 1
0.96875 0.53125 4.84999999999999964 4.84999999999999964 1
0.9765625 0.53125 4.83499999999999996 4.83499999999999996 1
0.984375 0.53125 4.73800000000000043 4.73800000000000043 1
0.9921875 0.53125 4.95999999999999996 4.95999999999999996 1
0 0.5390625 4.9269999999999996 4.9269999999999996 1
0.0078125 0.5390625 5.04000000000000004 5.04000000000000004 1
0.015625 0.5390625 4.99199999999999999 4.99199999999999999 1
0.0234375 0.5390625 5 5 1
0.03125 0.5390625 4.92100000000000026 4.92100000000000026 1
0.0390625 0.5390625 4.65200000000000014 4.65200000000000014 1
0.046875 0.5390625 5 5 1
0.0546875 0.5390625 5 5 1
0.0625 0.5390625 4.84999999999999964 4.84999999999999964 1
0.0703125 0.5390625 5.14700000000000024 5.14700000000000024 1
0.078125 0.5390625 5.04000000000000004 5.04000000000000004 1
0.0859375 0.5390625 5.30400000000000027 5.30400000000000027 1
0.09375 0.5390625 4.90599999999999969 4.90599999999999969 1
0.1015625 0.5390625 4.83900000000000041 4.83900000000000041 1
0.109375 0.5390625 4.95300000000000029 4.95300000000000029 1
0.1171875 0.5390625 4.88900000000000023 4.88900000000000023 1
0.125 0.5390625 4.73800000000000043 4.73800000000000043 1
0.1328125 0.5390625 4.73800000000000043 4.73800000000000043 1
0.140625 0.5390625 4.84999999999999964 4.84999999999999964 1
0.1484375 0.5390625 5.06400000000000006 5.06400000000000006 1
0.15625 0.5390625 5 5 1
0.1640625 0.5390625 5 5 1
0.171875 0.5390625 4.68499999999999961 4.68499999999999961 1
0.1796875 0.5390625 4.88900000000000023 4.88900000000000023 1
0.1875 0.5390625 5 5 1
0.1953125 0.5390625 5.04000000000000004 5.04000000000000004 1
0.203125 0.5390625 5 5 1
0.2109375 0.5390625 5.06400000000000006 5.06400000000000006 1
0.21875 0.5390625 5.22599999999999998 5.22599999999999998 1
0.2265625 0.5390625 4.90599999999999969 4.90599999999999969 1
0.234375 0.5390625 5.16000000000000014 5.16000000000000014 1
0.2421875 0.5390625 4.95500000000000007 4.95500000000000007 1
0.25 0.5390625 5.12899999999999956 5.12899999999999956 1
0.2578125 0.5390625 4.65200000000000014 4.65200000000000014 1
0.265625 0.5390625 4.68499999999999961 4.68499999999999961 1
0.2734375 0.5390625 4.95999999999999996 4.95999999999999996 1
0.28125 0.5390625 5.09700000000000042 5.09700000000000042 1
0.2890625 0.5390625 4.68499999999999961 4.68499999999999961 1
0.296875 0.5390625 5.07500000000000018 5.07500000000000018 1
0.3046875 0.5390625 4.89499999999999957 4.89499999999999957 1
0.3125 0.5390625 5.12600000000000033 5.12600000000000033 1
0.3203125 0.5390625 4.73800000000000043 4.73800000000000043 1
0.328125 0.5390625 5 5 1
0.3359375 0.5390625 4.56700000000000017 4.56700000000000017 1
0.34375 0.5390625 4.65200000000000014 4.65200000000000014 1
0.3515625 0.5390625 4.79699999999999971 4.79699999999999971 1
0.359375 0.5390625 5.03500000000000014 5.03500000000000014 1
0.3671875 0.5390625 4.65200000000000014 4.65200000000000014 1
0.375 0.5390625 5 5 1
0.3828125 0.5390625 5.09100000000000019 5.09100000000000019 1
0.390625 0.5390625 4.98399999999999999 4.98399999999999999 1
0.3984375 0.5390625 4.88900000000000023 4.88900000000000023 1
0.40625 0.5390625 5.15299999999999958 5.15299999999999958 1
0.4140625 0.5390625 4.56700000000000017 4.56700000000000017 1
0.421875 0.5390625 5.21300000000000008 5.21300000000000008 1
0.4296875 0.5390625 5 5 1
0.4375 0.5390625 4.84999999999999964 4.84999999999999964 1
0.4453125 0.5390625 5.1509999999999998 5.1509999999999998 1
0.453125 0.5390625 5.04000000000000004 5.04000000000000004 1
0.4609375 0.5390625 4.73800000000000043 4.73800000000000043 1
0.46875 0.5390625 5.05299999999999994 5.05299999999999994 1
0.4765625 0.5390625 5.06400000000000006 5.06400000000000006 1
0.484375 0.5390625 4.84299999999999997 4.84299999999999997 1
0.4921875 0.5390625 4.65200000000000014 4.65200000000000014 1
0.5 0.5390625 4.70800000000000018 4.70800000000000018 1
0.5078125 0.5390625 4.56700000000000017 4.56700000000000017 1
0.515625 0.5390625 4.90599999999999969 4.90599999999999969 1
0.5234375 0.5390625 5.04000000000000004 5.04000000000000004 1
0.53125 0.5390625 4.90599999999999969 4.90599999999999969 1
0.5390625 0.5390625 4.84999999999999964 4.84999999999999964 1
0.546875 0.5390625 4.73800000000000043 4.73800000000000043 1
0.5546875 0.5390625 4.90599999999999969 4.90599999999999969 1
0.5625 0.5390625 4.75300000000000011 4.75300000000000011 1
0.5703125 0.5390625 5.04000000000000004 5.04000000000000004 1
0.578125 0.5390625 5.27200000000000024 5.27200000000000024 1
0.5859375 0.5390625 4.88900000000000023 4.88900000000000023 1
0.59375 0.5390625 4.45000000000000018 4.45000000000000018 1
0.6015625 0.5390625 4.73800000000000043 4.73800000000000043 1
0.609375 0.5390625 5.04000000000000004 5.04000000000000004 1
0.6171875 0.5390625 5.04000000000000004 5.04000000000000004 1
0.625 0.5390625 4.73800000000000043 4.73800000000000043 1
0.6328125 0.5390625 4.79300000000000015 4.79300000000000015 1
0.640625 0.5390625 5.30600000000000005 5.30600000000000005 1
0.6484375 0.5390625 5.14700000000000024 5.14700000000000024 1
0.65625 0.5390625 5 5 1
0.6640625 0.5390625 5.04000000000000004 5.04000000000000004 1
0.671875 0.5390625 5.29499999999999993 5.29499999999999993 1
0.6796875 0.5390625 4.88900000000000023 4.88900000000000023 1
0.6875 0.5390625 5.00199999999999978 5.00199999999999978 1
0.6953125 0.5390625 5 5 1
0.703125 0.5390625 4.91000000000000014 4.91000000000000014 1
0.7109375 0.5390625 5.04000000000000004 5.04000000000000004 1
0.71875 0.5390625 5 5 1
0.7265625 0.5390625 5.24600000000000044 5.24600000000000044 1
0.734375 0.5390625 5.14599999999999991 5.14599999999999991 1
0.7421875 0.5390625 5 5 1
0.75 0.5390625 5 5 1
0.7578125 0.5390625 4.17100000000000026 4.17100000000000026 1
0.765625 0.5390625 5.04000000000000004 5.04000000000000004 1
0.7734375 0.5390625 4.84999999999999964 4.84999999999999964 1
0.78125 0.5390625 4.73800000000000043 4.73800000000000043 1
0.7890625 0.5390625 4.98000000000000043 4.98000000000000043 1
0.796875 0.5390625 5 5 1
0.8046875 0.5390625 4.90599999999999969 4.90599999999999969 1
0.8125 0.5390625 4.90399999999999991 4.90399999999999991 1
0.8203125 0.5390625 4.87100000000000044 4.87100000000000044 1
0.828125 0.5390625 5.04000000000000004 5.04000000000000004 1
0.8359375 0.5390625 5.14700000000000024 5.14700000000000024 1
0.84375 0.5390625 5.28099999999999969 5.28099999999999969 1
0.8515625 0.5390625 4.72599999999999998 4.72599999999999998 1
0.859375 0.5390625 5.04000000000000004 5.04000000000000004 1
0.8671875 0.5390625 4.88900000000000023 4.88900000000000023 1
0.875 0.5390625 4.84999999999999964 4.84999999999999964 1
0.8828125 0.5390625 4.92199999999999971 4.92199999999999971 1
0.890625 0.5390625 5.36000000000000032 5.36000000000000032 1
0.8984375 0.5390625 5.04000000000000004 5.04000000000000004 1
0.90625 0.5390625 5 5 1
0.9140625 0.5390625 4.68499999999999961 4.68499999999999961 1
0.921875 0.5390625 5.60299999999999976 5.60299999999999976 1
0.9296875 0.5390625 5 5 1
0.9375 0.5390625 4.95800000000000018 4.95800000000000018 1
0.9453125 0.5390625 4.74800000000000022 4.74800000000000022 1
0.953125 0.5390625 5.04000000000000004 5.04000000000000004 1
0.9609375 0.5390625 4.91699999999999982 4.91699999999999982 1
0.96875 0.5390625 4.73800000000000043 4.73800000000000043 1
0.9765625 0.5390625 4.90599999999999969 4.90599999999999969 1
0.984375 0.5390625 5 5 1
0.9921875 0.5390625 4.88900000000000023 4.88900000000000023 1
0 0.546875 4.89900000000000002 4.89900000000000002 1
0.0078125 0.546875 5.03500000000000014 5.03500000000000014 1
0.015625 0.546875 4.73800000000000043 4.73800000000000043 1
0.0234375 0.546875 4.75300000000000011 4.75300000000000011 1
0.03125 0.546875 5.26499999999999968 5.26499999999999968 1
0.0390625 0.546875 4.90599999999999969 4.90599999999999969 1
0.046875 0.546875 5 5 1
0.0546875 0.546875 4.75300000000000011 4.75300000000000011 1
0.0625 0.546875 5.04000000000000004 5.04000000000000004 1
0.0703125 0.546875 5.08800000000000008 5.08800000000000008 1
0.078125 0.546875 5.14599999999999991 5.14599999999999991 1
0.0859375 0.546875 5 5 1
0.09375 0.546875 4.90599999999999969 4.90599999999999969 1
0.1015625 0.546875 5 5 1
0.109375 0.546875 4.94899999999999984 4.94899999999999984 1
0.1171875 0.546875 4.65200000000000014 4.65200000000000014 1
0.125 0.546875 5.14700000000000024 5.14700000000000024 1
0.1328125 0.546875 5.04000000000000004 5.04000000000000004 1
0.140625 0.546875 4.68499999999999961 4.68499999999999961 1
0.1484375 0.546875 5.33000000000000007 5.33000000000000007 1
0.15625 0.546875 5.14599999999999991 5.14599999999999991 1
0.1640625 0.546875 5.04000000000000004 5.04000000000000004 1
0.171875 0.546875 5 5 1
0.1796875 0.546875 4.73800000000000043 4.73800000000000043 1
0.1875 0.546875 4.84999999999999964 4.84999999999999964 1
0.1953125 0.546875 5.04000000000000004 5.04000000000000004 1
0.203125 0.546875 5.04000000000000004 5.04000000000000004 1
0.2109375 0.546875 5.04000000000000004 5.04000000000000004 1
0.21875 0.546875 5.14700000000000024 5.14700000000000024 1
0.2265625 0.546875 4.96499999999999986 4.96499999999999986 1
0.234375 0.546875 5 5 1
0.2421875 0.546875 5.39100000000000001 5.39100000000000001 1
0.25 0.546875 5 5 1
0.2578125 0.546875 5 5 1
0.265625 0.546875 5.14700000000000024 5.14700000000000024 1
0.2734375 0.546875 4.51100000000000012 4.51100000000000012 1
0.28125 0.546875 4.65200000000000014 4.65200000000000014 1
0.2890625 0.546875 4.73800000000000043 4.73800000000000043 1
0.296875 0.546875 4.88900000000000023 4.88900000000000023 1
0.3046875 0.546875 4.84999999999999964 4.84999999999999964 1
0.3125 0.546875 4.88900000000000023 4.88900000000000023 1
0.3203125 0.546875 5.02700000000000014 5.02700000000000014 1
0.328125 0.546875 4.51100000000000012 4.51100000000000012 1
0.3359375 0.546875 5 5 1
0.34375 0.546875 4.84999999999999964 4.84999999999999964 1
0.3515625 0.546875 4.91999999999999993 4.91999999999999993 1
0.359375 0.546875 5.04000000000000004 5.04000000000000004 1
0.3671875 0.546875 5 5 1
0.375 0.546875 5.05900000000000016 5.05900000000000016 1
0.3828125 0.546875 4.84999999999999964 4.84999999999999964 1
0.390625 0.546875 5.14700000000000024 5.14700000000000024 1
0.3984375 0.546875 4.65599999999999969 4.65599999999999969 1
0.40625 0.546875 4.95300000000000029 4.95300000000000029 1
0.4140625 0.546875 5.04000000000000004 5.04000000000000004 1
0.421875 0.546875 4.90599999999999969 4.90599999999999969 1
0.4296875 0.546875 4.76999999999999957 4.76999999999999957 1
0.4375 0.546875 4.84999999999999964 4.84999999999999964 1
0.4453125 0.546875 5.19399999999999995 5.19399999999999995 1
0.453125 0.546875 4.56700000000000017 4.56700000000000017 1
0.4609375 0.546875 4.56700000000000017 4.56700000000000017 1
0.46875 0.546875 5.14700000000000024 5.14700000000000024 1
0.4765625 0.546875 5.04000000000000004 5.04000000000000004 1
0.484375 0.546875 5 5 1
0.4921875 0.546875 5.16500000000000004 5.16500000000000004 1
0.5 0.546875 4.80400000000000027 4.80400000000000027 1
0.5078125 0.546875 4.84999999999999964 4.84999999999999964 1
0.515625 0.546875 4.41600000000000037 4.41600000000000037 1
0.5234375 0.546875 4.88900000000000023 4.88900000000000023 1
0.53125 0.546875 4.83499999999999996 4.83499999999999996 1
0.5390625 0.546875 4.90599999999999969 4.90599999999999969 1
0.546875 0.546875 4.75300000000000011 4.75300000000000011 1
0.5546875 0.546875 4.68499999999999961 4.68499999999999961 1
0.5625 0.546875 5.22599999999999998 5.22599999999999998 1
0.5703125 0.546875 4.88900000000000023 4.88900000000000023 1
0.578125 0.546875 4.73800000000000043 4.73800000000000043 1
0.5859375 0.546875 4.95999999999999996 4.95999999999999996 1
0.59375 0.546875 4.87999999999999989 4.87999999999999989 1
0.6015625 0.546875 5 5 1
0.609375 0.546875 5.04000000000000004 5.04000000000000004 1
0.6171875 0.546875 4.88900000000000023 4.88900000000000023 1
0.625 0.546875 4.68499999999999961 4.68499999999999961 1
0.6328125 0.546875 4.93200000000000038 4.93200000000000038 1
0.640625 0.546875 5.04000000000000004 5.04000000000000004 1
0.6484375 0.546875 5.12600000000000033 5.12600000000000033 1
0.65625 0.546875 5 5 1
0.6640625 0.546875 4.91099999999999959 4.91099999999999959 1
0.671875 0.546875 5.40500000000000025 5.40500000000000025 1
0.6796875 0.546875 5.22599999999999998 5.22599999999999998 1
0.6875 0.546875 4.90599999999999969 4.90599999999999969 1
0.6953125 0.546875 4.84999999999999964 4.84999999999999964 1
0.703125 0.546875 4.73800000000000043 4.73800000000000043 1
0.7109375 0.546875 4.93400000000000016 4.93400000000000016 1
0.71875 0.546875 4.81099999999999994 4.81099999999999994 1
0.7265625 0.546875 4.85099999999999998 4.85099999999999998 1
0.734375 0.546875 5.04000000000000004 5.04000000000000004 1
0.7421875 0.546875 5 5 1
0.75 0.546875 5.09600000000000009 5.09600000000000009 1
0.7578125 0.546875 4.90599999999999969 4.90599999999999969 1
0.765625 0.546875 5.23299999999999965 5.23299999999999965 1
0.7734375 0.546875 4.82699999999999996 4.82699999999999996 1
0.78125 0.546875 5.11800000000000033 5.11800000000000033 1
0.7890625 0.546875 4.51100000000000012 4.51100000000000012 1
0.796875 0.546875 5.27700000000000014 5.27700000000000014 1
0.8046875 0.546875 5 5 1
0.8125 0.546875 4.84999999999999964 4.84999999999999964 1
0.8203125 0.546875 4.73599999999999977 4.73599999999999977 1
0.828125 0.546875 4.68799999999999972 4.68799999999999972 1
0.8359375 0.546875 4.84999999999999964 4.84999999999999964 1
0.84375 0.546875 5.14700000000000024 5.14700000000000024 1
0.8515625 0.546875 5.3230000000000004 5.3230000000000004 1
0.859375 0.546875 5.14700000000000024 5.14700000000000024 1
0.8671875 0.546875 5.03599999999999959 5.03599999999999959 1
0.875 0.546875 5.14700000000000024 5.14700000000000024 1
0.8828125 0.546875 4.73800000000000043 4.73800000000000043 1
0.890625 0.546875 4.87300000000000022 4.87300000000000022 1
0.8984375 0.546875 4.88900000000000023 4.88900000000000023 1
0.90625 0.546875 5.04000000000000004 5.04000000000000004 1
0.9140625 0.546875 5.04000000000000004 5.04000000000000004 1
0.921875 0.546875 4.73800000000000043 4.73800000000000043 1
0.9296875 0.546875 5 5 1
0.9375 0.546875 5 5 1
0.9453125 0.546875 4.90800000000000036 4.90800000000000036 1
0.953125 0.546875 4.84999999999999964 4.84999999999999964 1
0.9609375 0.546875 5 5 1
0.96875 0.546875 5.04000000000000004 5.04000000000000004 1
0.9765625 0.546875 5.07800000000000029 5.07800000000000029 1
0.984375 0.546875 4.94299999999999962 4.94299999999999962 1
0.9921875 0.546875 5.14700000000000024 5.14700000000000024 1
0 0.5546875 4.88900000000000023 4.88900000000000023 1
0.0078125 0.5546875 5 5 1
0.015625 0.5546875 5 5 1
0.0234375 0.5546875 4.88900000000000023 4.88900000000000023 1
0.03125 0.5546875 5.05100000000000016 5.05100000000000016 1
0.0390625 0.5546875 4.84999999999999964 4.84999999999999964 1
0.046875 0.5546875 4.73800000000000043 4.73800000000000043 1
0.0546875 0.5546875 5.04000000000000004 5.04000000000000004 1
0.0625 0.5546875 5 5 1
0.0703125 0.5546875 4.73200000000000021 4.73200000000000021 1
0.078125 0.5546875 5.14700000000000024 5.14700000000000024 1
0.0859375 0.5546875 4.65200000000000014 4.65200000000000014 1
0.09375 0.5546875 5.04000000000000004 5.04000000000000004 1
0.1015625 0.5546875 5.06400000000000006 5.06400000000000006 1
0.109375 0.5546875 4.68499999999999961 4.68499999999999961 1
0.1171875 0.5546875 4.66199999999999992 4.66199999999999992 1
0.125 0.5546875 4.84999999999999964 4.84999999999999964 1
0.1328125 0.5546875 4.83999999999999986 4.83999999999999986 1
0.140625 0.5546875 5 5 1
0.1484375 0.5546875 4.80900000000000016 4.80900000000000016 1
0.15625 0.5546875 4.84999999999999964 4.84999999999999964 1
0.1640625 0.5546875 4.88199999999999967 4.88199999999999967 1
0.171875 0.5546875 5.14599999999999991 5.14599999999999991 1
0.1796875 0.5546875 4.96400000000000041 4.96400000000000041 1
0.1875 0.5546875 5 5 1
0.1953125 0.5546875 4.90399999999999991 4.90399999999999991 1
0.203125 0.5546875 4.84999999999999964 4.84999999999999964 1
0.2109375 0.5546875 4.84999999999999964 4.84999999999999964 1
0.21875 0.5546875 4.93200000000000038 4.93200000000000038 1
0.2265625 0.5546875 4.81899999999999995 4.81899999999999995 1
0.234375 0.5546875 4.88499999999999979 4.88499999999999979 1
0.2421875 0.5546875 5.01600000000000001 5.01600000000000001 1
0.25 0.5546875 4.56700000000000017 4.56700000000000017 1
0.2578125 0.5546875 5 5 1
0.265625 0.5546875 4.88900000000000023 4.88900000000000023 1
0.2734375 0.5546875 4.70699999999999985 4.70699999999999985 1
0.28125 0.5546875 5.04000000000000004 5.04000000000000004 1
0.2890625 0.5546875 5 5 1
0.296875 0.5546875 5.14599999999999991 5.14599999999999991 1
0.3046875 0.5546875 5.00699999999999967 5.00699999999999967 1
0.3125 0.5546875 4.84999999999999964 4.84999999999999964 1
0.3203125 0.5546875 4.73800000000000043 4.73800000000000043 1
0.328125 0.5546875 5.21699999999999964 5.21699999999999964 1
0.3359375 0.5546875 4.84999999999999964 4.84999999999999964 1
0.34375 0.5546875 4.68499999999999961 4.68499999999999961 1
0.3515625 0.5546875 4.84999999999999964 4.84999999999999964 1
0.359375 0.5546875 4.84400000000000031 4.84400000000000031 1
0.3671875 0.5546875 4.84999999999999964 4.84999999999999964 1
0.375 0.5546875 4.56700000000000017 4.56700000000000017 1
0.3828125 0.5546875 4.84999999999999964 4.84999999999999964 1
0.390625 0.5546875 4.56700000000000017 4.56700000000000017 1
0.3984375 0.5546875 4.73800000000000043 4.73800000000000043 1
0.40625 0.5546875 4.65200000000000014 4.65200000000000014 1
0.4140625 0.5546875 4.65200000000000014 4.65200000000000014 1
0.421875 0.5546875 4.73800000000000043 4.73800000000000043 1
0.4296875 0.5546875 5.14700000000000024 5.14700000000000024 1
0.4375 0.5546875 4.29999999999999982 4.29999999999999982 1
0.4453125 0.5546875 4.90399999999999991 4.90399999999999991 1
0.453125 0.5546875 4.75300000000000011 4.75300000000000011 1
0.4609375 0.5546875 4.84999999999999964 4.84999999999999964 1
0.46875 0.5546875 5 5 1
0.4765625 0.5546875 4.65200000000000014 4.65200000000000014 1
0.484375 0.5546875 4.75300000000000011 4.75300000000000011 1
0.4921875 0.5546875 4.84999999999999964 4.84999999999999964 1
0.5 0.5546875 5.04000000000000004 5.04000000000000004 1
0.5078125 0.5546875 4.95300000000000029 4.95300000000000029 1
0.515625 0.5546875 4.68499999999999961 4.68499999999999961 1
0.5234375 0.5546875 5 5 1
0.53125 0.5546875 4.87899999999999956 4.87899999999999956 1
0.5390625 0.5546875 4.84999999999999964 4.84999999999999964 1
0.546875 0.5546875 5.06400000000000006 5.06400000000000006 1
0.5546875 0.5546875 4.45000000000000018 4.45000000000000018 1
0.5625 0.5546875 5.14700000000000024 5.14700000000000024 1
0.5703125 0.5546875 4.51100000000000012 4.51100000000000012 1
0.578125 0.5546875 4.68499999999999961 4.68499999999999961 1
0.5859375 0.5546875 4.65200000000000014 4.65200000000000014 1
0.59375 0.5546875 4.84999999999999964 4.84999999999999964 1
0.6015625 0.5546875 5.04000000000000004 5.04000000000000004 1
0.609375 0.5546875 5.1120000000000001 5.1120000000000001 1
0.6171875 0.5546875 5.04000000000000004 5.04000000000000004 1
0.625 0.5546875 4.65599999999999969 4.65599999999999969 1
0.6328125 0.5546875 5 5 1
0.640625 0.5546875 4.73800000000000043 4.73800000000000043 1
0.6484375 0.5546875 5 5 1
0.65625 0.5546875 5 5 1
0.6640625 0.5546875 5 5 1
0.671875 0.5546875 4.56700000000000017 4.56700000000000017 1
0.6796875 0.5546875 4.73800000000000043 4.73800000000000043 1
0.6875 0.5546875 5.28200000000000003 5.28200000000000003 1
0.6953125 0.5546875 4.88900000000000023 4.88900000000000023 1
0.703125 0.5546875 5.10500000000000043 5.10500000000000043 1
0.7109375 0.5546875 5.04000000000000004 5.04000000000000004 1
0.71875 0.5546875 5 5 1
0.7265625 0.5546875 4.83499999999999996 4.83499999999999996 1
0.734375 0.5546875 4.68499999999999961 4.68499999999999961 1
0.7421875 0.5546875 4.73800000000000043 4.73800000000000043 1
0.75 0.5546875 4.88900000000000023 4.88900000000000023 1
0.7578125 0.5546875 4.84999999999999964 4.84999999999999964 1
0.765625 0.5546875 5.04000000000000004 5.04000000000000004 1
0.7734375 0.5546875 5.28599999999999959 5.28599999999999959 1
0.78125 0.5546875 4.96199999999999974 4.96199999999999974 1
0.7890625 0.5546875 5.07699999999999996 5.07699999999999996 1
0.796875 0.5546875 5.04000000000000004 5.04000000000000004 1
0.8046875 0.5546875 4.68499999999999961 4.68499999999999961 1
0.8125 0.5546875 5.24899999999999967 5.24899999999999967 1
0.8203125 0.5546875 4.65200000000000014 4.65200000000000014 1
0.828125 0.5546875 5.04000000000000004 5.04000000000000004 1
0.8359375 0.5546875 4.80700000000000038 4.80700000000000038 1
0.84375 0.5546875 5.06400000000000006 5.06400000000000006 1
0.8515625 0.5546875 4.84999999999999964 4.84999999999999964 1
0.859375 0.5546875 5.26100000000000012 5.26100000000000012 1
0.8671875 0.5546875 5.04000000000000004 5.04000000000000004 1
0.875 0.5546875 4.73800000000000043 4.73800000000000043 1
0.8828125 0.5546875 5.04000000000000004 5.04000000000000004 1
0.890625 0.5546875 4.51100000000000012 4.51100000000000012 1
0.8984375 0.5546875 4.88900000000000023 4.88900000000000023 1
0.90625 0.5546875 4.84999999999999964 4.84999999999999964 1
0.9140625 0.5546875 5 5 1
0.921875 0.5546875 5.22599999999999998 5.22599999999999998 1
0.9296875 0.5546875 4.74500000000000011 4.74500000000000011 1
0.9375 0.5546875 5.00999999999999979 5.00999999999999979 1
0.9453125 0.5546875 5 5 1
0.953125 0.5546875 4.85400000000000009 4.85400000000000009 1
0.9609375 0.5546875 5.06400000000000006 5.06400000000000006 1
0.96875 0.5546875 5.14700000000000024 5.14700000000000024 1
0.9765625 0.5546875 5.04000000000000004 5.04000000000000004 1
0.984375 0.5546875 4.68499999999999961 4.68499999999999961 1
0.9921875 0.5546875 5.00900000000000034 5.00900000000000034 1
0 0.5625 4.88900000000000023 4.88900000000000023 1
0.0078125 0.5625 5 5 1
0.015625 0.5625 4.65200000000000014 4.65200000000000014 1
0.0234375 0.5625 4.84999999999999964 4.84999999999999964 1
0.03125 0.5625 4.75300000000000011 4.75300000000000011 1
0.0390625 0.5625 4.88900000000000023 4.88900000000000023 1
0.046875 0.5625 5.04000000000000004 5.04000000000000004 1
0.0546875 0.5625 5.04000000000000004 5.04000000000000004 1
0.0625 0.5625 4.73800000000000043 4.73800000000000043 1
0.0703125 0.5625 5.0129999999999999 5.0129999999999999 1
0.078125 0.5625 5.04000000000000004 5.04000000000000004 1
0.0859375 0.5625 5.14700000000000024 5.14700000000000024 1
0.09375 0.5625 5.09999999999999964 5.09999999999999964 1
0.1015625 0.5625 4.79199999999999982 4.79199999999999982 1
0.109375 0.5625 4.81899999999999995 4.81899999999999995 1
0.1171875 0.5625 4.79399999999999959 4.79399999999999959 1
0.125 0.5625 5.06400000000000006 5.06400000000000006 1
0.1328125 0.5625 5.04000000000000004 5.04000000000000004 1
0.140625 0.5625 5.04000000000000004 5.04000000000000004 1
0.1484375 0.5625 4.45000000000000018 4.45000000000000018 1
0.15625 0.5625 4.73800000000000043 4.73800000000000043 1
0.1640625 0.5625 4.91699999999999982 4.91699999999999982 1
0.171875 0.5625 5.22599999999999998 5.22599999999999998 1
0.1796875 0.5625 5.04000000000000004 5.04000000000000004 1
0.1875 0.5625 4.87600000000000033 4.87600000000000033 1
0.1953125 0.5625 5 5 1
0.203125 0.5625 5.04000000000000004 5.04000000000000004 1
0.2109375 0.5625 5.13499999999999979 5.13499999999999979 1
0.21875 0.5625 4.75300000000000011 4.75300000000000011 1
0.2265625 0.5625 5.41000000000000014 5.41000000000000014 1
0.234375 0.5625 4.68499999999999961 4.68499999999999961 1
0.2421875 0.5625 5.04000000000000004 5.04000000000000004 1
0.25 0.5625 4.88199999999999967 4.88199999999999967 1
0.2578125 0.5625 5 5 1
0.265625 0.5625 4.88900000000000023 4.88900000000000023 1
0.2734375 0.5625 4.88900000000000023 4.88900000000000023 1
0.28125 0.5625 5 5 1
0.2890625 0.5625 5 5 1
0.296875 0.5625 5.02700000000000014 5.02700000000000014 1
0.3046875 0.5625 4.79999999999999982 4.79999999999999982 1
0.3125 0.5625 4.84999999999999964 4.84999999999999964 1
0.3203125 0.5625 5.04000000000000004 5.04000000000000004 1
0.328125 0.5625 5.19399999999999995 5.19399999999999995 1
0.3359375 0.5625 4.84999999999999964 4.84999999999999964 1
0.34375 0.5625 5.06400000000000006 5.06400000000000006 1
0.3515625 0.5625 5 5 1
0.359375 0.5625 5.32899999999999974 5.32899999999999974 1
0.3671875 0.5625 5 5 1
0.375 0.5625 5.20999999999999996 5.20999999999999996 1
0.3828125 0.5625 4.84999999999999964 4.84999999999999964 1
0.390625 0.5625 5.16500000000000004 5.16500000000000004 1
0.3984375 0.5625 5.04000000000000004 5.04000000000000004 1
0.40625 0.5625 5.05499999999999972 5.05499999999999972 1
0.4140625 0.5625 4.88900000000000023 4.88900000000000023 1
0.421875 0.5625 5.04000000000000004 5.04000000000000004 1
0.4296875 0.5625 5 5 1
